ply
format ascii 1.0
element vertex 1001
property float x
property float y
property float z
property uint8 red
property uint8 green
property uint8 blue
property uint8 alpha
end_header
0.19264717 0.12901646 0.15374042 118 122 127 255
0.20039135 0.1368416 0.08925061 112 121 124 255
0.23067549 -0.3249806 0.07268611 110 123 139 255
0.060352113 0.07493588 0.35399488 65 69 76 255
0.27982914 0.22259462 -0.026336929 112 118 120 255
0.27736086 0.20098902 0.025837569 118 121 127 255
0.28734532 0.1825714 0.15555698 112 117 123 255
0.063097775 0.075407915 0.3160498 86 74 86 255
0.2244186 0.16793391 0.05108392 2 4 5 255
0.027296536 0.06277433 0.31281343 75 69 76 255
0.12486984 0.27201232 -0.07218888 107 113 120 255
0.5077384 -0.07920374 0.16038842 70 78 89 255
0.20008098 0.19170986 -0.1747304 69 70 77 255
0.085402064 0.08112808 0.29073557 117 120 129 255
0.10160113 0.1378835 0.100171044 182 60 50 255
0.10777305 0.347666 0.00066481443 250 50 35 255
0.32680702 0.21802612 0.13612987 84 86 87 255
0.13345449 -0.27761865 0.30727074 67 75 85 255
0.3524165 0.24333774 -0.060712703 3 6 14 255
0.13041411 0.256621 0.02363725 216 74 64 255
-0.02941135 -0.10111086 0.25730994 26 37 48 255
-0.0011893985 0.056278944 0.30930138 126 137 143 255
0.5138616 -0.074885964 0.1449828 71 79 90 255
0.066738345 0.080198266 0.3061466 120 127 137 255
0.08683387 0.07819168 0.30870575 118 128 138 255
0.08620755 0.07648356 0.30621484 118 129 139 255
0.11845687 0.0931113 0.3056529 115 126 134 255
0.17299338 0.11082683 0.2077486 66 14 30 255
0.20987383 0.13888973 0.14462312 56 25 38 255
0.1670855 0.115981445 0.23151569 56 14 30 255
0.1670855 0.115981445 0.23151569 56 14 30 255
0.17360269 0.11130417 0.2706475 115 126 134 255
0.14932926 0.11945127 0.031424712 0 3 4 255
0.20644058 0.13765995 0.1165963 36 29 35 255
0.11866496 0.09250951 0.18662067 23 5 9 255
0.12454879 0.09663626 0.15811123 28 3 7 255
0.06751234 0.07150423 0.17830414 24 30 36 255
0.13482885 0.10899564 0.10650517 10 3 6 255
0.07895519 0.07555919 0.14102858 3 2 4 255
0.14103846 0.10766261 0.09004422 15 2 6 255
0.18797366 0.13315025 0.070527114 7 2 4 255
0.18805122 0.13354138 0.07145407 7 2 4 255
0.16611405 0.11714272 0.17160535 123 126 132 255
0.16611405 0.11714272 0.17160535 123 126 132 255
0.12848894 0.1062739 0.07497448 120 127 131 255
0.16451098 0.2085962 0.31501073 114 122 126 255
0.09580375 0.08724026 0.114986196 124 128 131 255
0.09004373 0.080999106 0.14002532 118 126 130 255
0.09089249 0.08363886 0.14499485 119 127 131 255
0.09077052 0.08329989 0.14433926 119 127 130 255
0.090840556 0.08354193 0.14479087 119 127 131 255
0.10856287 0.08816243 0.1898008 121 129 134 255
0.169386 0.117877096 0.13391797 119 124 127 255
0.19206707 0.12527327 0.14577864 116 122 125 255
0.055397615 -0.020730652 0.067095414 117 127 132 255
0.21819954 0.14079179 0.133297 121 123 128 255
0.036526017 0.065132074 0.27057347 130 134 139 255
-0.097064234 0.04149218 0.10838394 128 138 141 255
0.3882174 0.24389873 0.18111771 108 113 118 255
0.38823852 0.24393612 0.1812326 108 113 119 255
0.31919375 0.1880355 0.22688939 112 118 122 255
0.116386876 0.31514746 -0.011597201 243 61 55 255
0.25462463 0.18120404 0.041277014 113 117 123 255
0.044035807 0.06713621 0.24449052 131 136 141 255
0.26685026 0.15837027 0.26063186 115 122 127 255
0.25389335 0.15450588 0.2736702 114 119 125 255
0.19219303 0.11979843 0.23456746 54 30 41 255
0.06289826 0.074743114 0.3150348 86 73 86 255
0.15492806 0.11250528 0.25261858 58 23 26 255
0.22817695 0.15535867 0.05939621 1 3 8 255
0.22814776 0.15479763 0.058158595 1 3 7 255
0.20899807 0.13237724 0.21496582 77 31 48 255
0.0880468 0.12017584 0.19485268 1 2 4 255
0.7076053 -0.1883015 0.20325747 58 66 74 255
-0.008404315 0.05497572 0.21994422 85 63 70 255
-0.28462133 0.49476337 0.0064887316 201 204 206 255
0.3089847 0.22063425 -0.20343195 0 3 9 255
-0.07089643 0.048607577 -0.00088070525 122 128 132 255
0.21426071 0.21028316 -0.1567619 72 74 82 255
0.15267587 0.24253029 0.07159957 238 220 226 255
0.108058825 0.14129484 0.0940004 186 66 55 255
0.03312618 0.060380273 0.24158368 101 93 99 255
0.08624525 0.085231744 0.27222237 0 1 10 255
-0.14121008 0.03927253 0.042308837 63 60 61 255
0.06053179 0.07128186 0.2445004 1 6 15 255
0.10393892 0.36190996 -0.025219241 176 69 58 255
-0.12755291 0.26718006 0.08327539 244 232 225 255
0.415236 0.21709272 0.23256925 1 3 10 255
-0.12073826 -0.22755133 0.056491636 136 152 167 255
0.38317704 -0.017579656 -0.080069534 104 116 128 255
0.43582454 0.1513134 0.11962827 102 114 128 255
0.07425195 -0.29032227 0.33369708 132 147 163 255
0.692168 -0.19320762 0.20858116 33 38 47 255
0.69217 -0.19312523 0.2086962 34 39 47 255
0.6923338 -0.19379848 0.20791672 35 39 47 255
0.08487453 0.13997816 0.100242384 182 52 37 255
0.52551955 -0.070826404 0.13876066 72 81 92 255
0.09432779 0.08151541 0.2818646 113 124 131 255
0.33195668 0.21153168 0.19952211 108 119 125 255
0.28434092 0.1717826 0.22298202 106 116 121 255
0.3430455 0.11467119 -0.17831133 3 5 10 255
0.42203265 0.20619081 0.24351373 101 113 126 255
0.25799927 0.17148523 0.09070197 29 35 42 255
0.23257211 0.15409788 0.10367072 25 26 30 255
0.078958094 0.075673304 0.14100221 2 2 3 255
0.1524384 0.09950397 0.14924842 48 2 10 255
0.18883665 0.1309801 0.19711612 114 122 126 255
0.15103276 0.10540236 0.2587288 119 127 137 255
0.15049756 0.103244156 0.25450546 115 127 134 255
0.0119336285 0.057721026 0.24999373 125 132 136 255
0.16386974 0.115516104 0.103295825 18 4 8 255
0.1685156 0.122776225 0.07862132 8 1 3 255
0.14573586 0.113769524 0.06290203 5 3 5 255
0.16531818 0.11471634 0.1667741 117 124 128 255
0.11668744 0.09542375 0.06840554 4 2 5 255
0.10744259 0.096518986 0.12039188 2 2 2 255
0.20352513 -0.44602367 0.42611524 1 4 9 255
0.35348982 0.22071052 0.2128135 107 116 123 255
0.35348982 0.22071052 0.2128135 107 116 123 255
0.113094114 0.08956507 0.15678564 119 125 128 255
-0.0050570704 0.055266056 0.20678219 130 135 138 255
-0.03997458 0.050552037 0.116953984 128 131 137 255
0.14169121 -0.22059946 0.34510207 68 78 91 255
0.20183463 0.19931147 -0.19493538 84 86 97 255
-0.06397407 0.049249098 0.10258478 130 140 143 255
0.31852135 0.19612034 0.24369945 111 118 122 255
0.28614357 0.18075114 0.17317377 63 64 71 255
0.32882214 0.15415922 -0.079222664 108 114 120 255
0.43560562 0.18893357 0.1812809 69 71 76 255
0.25388724 0.1547322 0.2740823 114 119 124 255
0.1534842 0.2533489 -0.041256905 138 111 118 255
0.19400348 0.12827002 0.1317208 48 7 18 255
0.21485661 -0.44998154 0.39993414 1 4 16 255
-0.020295301 0.4971868 -0.1716247 147 153 159 255
0.22437537 0.1489882 0.08785633 10 10 16 255
0.1305594 0.30279595 -0.008267683 223 79 78 255
-0.09139107 0.5096166 -0.17028075 5 9 18 255
0.2556542 0.20817755 -0.052230213 115 121 125 255
0.5524175 -0.03507137 0.12527813 73 82 95 255
-0.028347567 0.042565797 0.32278582 42 45 49 255
-0.024342291 0.051017195 0.33638832 45 47 51 255
0.5860153 -0.05922852 0.13133632 83 91 99 255
0.10804784 0.08908307 0.28405872 0 1 9 255
0.04630232 -0.053650457 0.08358597 101 104 111 255
0.39492738 0.2321562 0.0641257 36 32 36 255
0.29203537 0.24584375 -0.17228208 1 1 3 255
-0.11766114 0.6286941 -0.10380626 202 208 213 255
0.0025985923 -0.1772354 0.12232172 122 138 154 255
0.3785193 0.23967966 0.14760883 102 114 120 255
0.06956806 0.36749473 0.012514756 220 156 152 255
0.24715906 0.18401751 0.0705945 30 26 31 255
0.13979974 0.10670418 0.24914797 44 20 29 255
0.2641298 0.17352064 0.08078321 44 46 56 255
0.18252864 0.12131087 0.1515099 53 3 19 255
0.1863265 0.12513298 0.12000992 41 1 9 255
0.01707346 0.05484232 0.35182938 131 142 150 255
0.16115084 0.117748804 0.082593255 9 2 4 255
0.12894642 0.10027853 0.12762803 19 1 4 255
0.12855324 0.09908758 0.12534112 20 2 4 255
-0.04414145 0.04918978 0.2442579 123 136 144 255
0.106683485 0.09411702 0.11585034 3 2 2 255
0.28555351 0.17868851 0.190653 109 118 125 255
0.18848412 0.13557988 0.07590193 8 2 4 255
0.0147459265 0.05583825 0.17175512 63 40 50 255
0.1318169 0.097116776 0.20695983 106 118 122 255
0.13202623 0.09774732 0.20826577 110 119 125 255
0.14574361 0.11413383 0.06358038 5 2 4 255
0.1876556 0.12138521 0.17738244 112 123 125 255
0.18804517 0.12319204 0.1808029 117 122 125 255
-0.16529198 0.52049446 -0.0019907807 36 40 42 255
0.19282828 0.12977953 0.15522818 113 121 125 255
0.15196821 0.11640911 0.09410709 118 123 125 255
0.11356739 0.091157906 0.15980245 117 125 128 255
0.21366794 0.13562056 0.16259846 112 121 124 255
-0.07179119 0.04670169 0.12733561 125 136 139 255
0.25157496 0.17160743 0.06591678 114 119 123 255
0.2972932 0.20822915 0.028286397 110 114 120 255
0.12554865 0.30961877 -0.009552209 242 57 49 255
0.12542495 0.3087588 -0.011833874 243 51 47 255
0.26766106 0.16411194 0.27175826 111 116 122 255
-0.10176452 0.5132605 -0.16888961 197 203 210 255
0.27106288 0.1779248 0.09319346 44 46 54 255
0.31139737 0.20334299 0.1456686 112 117 124 255
-0.03057097 0.059089724 0.10317702 127 132 137 255
-0.03007865 0.060038224 0.105019234 127 131 136 255
-0.039962504 0.05148544 0.23236115 71 61 68 255
0.110519305 0.08811856 0.17155056 14 1 5 255
0.18066359 0.13353772 0.06552107 4 3 6 255
0.09260532 0.08306225 0.12513502 3 2 3 255
0.22381678 0.15158403 0.09302728 9 9 14 255
0.121747784 0.0999135 0.12067983 10 2 3 255
0.2820739 0.17360944 0.17521116 108 115 123 255
-0.02252642 0.11032366 0.15530287 119 130 134 255
0.15655452 0.104061775 0.20126446 49 7 18 255
-0.029583704 0.4943329 -0.18204609 4 9 17 255
0.3181822 0.09216251 -0.054060735 110 118 124 255
0.32743093 0.20817894 0.18304771 109 117 124 255
0.17191748 -0.46664256 0.3657496 110 123 141 255
0.22294132 -0.21697123 0.2698497 83 94 105 255
0.15630412 -0.39032605 0.37496376 105 111 119 255
0.039174262 0.06198604 0.21277814 91 88 93 255
0.048969697 0.06565985 0.30358902 131 139 146 255
0.17199543 -0.46907791 0.37556505 80 97 116 255
0.17199543 -0.46907791 0.37556505 80 97 116 255
0.08436392 0.0977166 0.07142789 114 54 59 255
0.13002282 -0.32280374 0.38415426 101 108 116 255
0.04873522 0.43657875 -0.02575798 186 187 186 255
0.16729657 -0.008815223 0.034073323 73 26 41 255
-0.025858918 0.051439423 0.29088476 121 135 142 255
-0.025945155 0.05134645 0.29098526 122 135 142 255
0.04960425 0.063965864 0.34482163 119 131 138 255
0.21288988 0.13226889 0.29126546 115 122 128 255
0.03626883 0.06408742 0.35831037 134 145 153 255
0.2400045 0.20994024 -0.029304827 116 120 126 255
0.50930303 0.076888196 0.08211729 45 55 67 255
0.3804149 0.2628427 0.18031651 35 34 38 255
0.12993741 0.29941234 -0.017632743 221 75 75 255
-0.11907568 0.05523844 0.024013726 3 2 3 255
-0.17030919 0.52088124 0.006552047 201 204 205 255
0.14639987 0.0954509 0.32927483 52 52 59 255
0.35250744 -0.25932524 0.037049696 102 115 129 255
-0.030515846 0.08994801 0.10492219 60 59 62 255
0.009413781 0.26819536 0.08019304 250 39 17 255
-0.058437657 0.05928903 0.011560643 68 50 50 255
0.2416437 0.22107555 -0.15696262 114 119 123 255
0.1716183 0.13823158 0.42920095 29 32 36 255
0.20060481 -0.4645452 0.41813195 127 141 159 255
-0.04483559 0.05849182 0.297574 77 73 74 255
0.13270646 0.30473247 -0.013438306 249 74 68 255
0.27355182 0.170712 0.25114158 8 9 15 255
0.16902998 0.11036217 0.24478859 67 21 36 255
0.1674656 0.1181071 0.23619534 53 10 22 255
0.36724 0.23915128 0.13518946 39 38 44 255
0.06237332 0.34291714 0.025019325 184 10 13 255
0.19821055 0.13028619 0.18151875 61 24 38 255
0.33148485 0.21287861 0.20168108 108 120 126 255
0.26156083 0.17675824 0.058325823 39 41 44 255
0.14269961 0.102744795 0.20720136 43 5 15 255
0.3587194 0.24200253 0.11315725 112 120 127 255
0.18275362 0.12208942 0.15263268 49 2 17 255
0.1790044 0.11410939 0.23996411 109 123 127 255
0.15192842 0.10782804 0.14210562 37 4 8 255
0.18403633 0.12084842 0.21546392 113 124 129 255
0.09705765 0.07592704 0.17543931 22 8 13 255
0.13063397 0.09256469 0.13762146 37 2 9 255
0.2390012 0.15772541 0.09458791 12 18 26 255
0.20730613 0.13162035 0.23363695 113 124 129 255
0.23594184 0.1602499 0.07463748 6 7 17 255
0.12392455 0.09563683 0.15651926 24 2 7 255
0.16110055 0.11719369 0.081808746 11 3 4 255
0.101072185 0.08768739 0.1406002 4 1 3 255
0.1561879 0.10970038 0.23035653 112 125 129 255
0.11335006 0.0944773 0.10424862 3 0 3 255
0.07319008 0.070617676 0.16565432 6 7 11 255
0.07315961 0.07069801 0.16586272 6 6 10 255
0.08413267 0.074672125 0.16343169 110 122 126 255
0.017668234 0.05471386 0.21561062 125 130 134 255
0.209864 0.12816322 0.1874326 111 122 129 255
0.090247355 -0.09095596 -0.22482829 115 122 128 255
0.11454147 0.09500082 0.16648638 117 124 129 255
0.24812913 0.16222918 0.08820217 109 118 126 255
0.29977956 -0.18128118 0.22189845 69 81 96 255
0.27741396 0.2024681 0.029956069 115 122 124 255
0.27267283 0.18308696 0.08087952 106 113 117 255
0.2753912 0.19279566 0.05609125 112 117 120 255
0.29589078 0.20519814 0.07086365 107 112 116 255
0.28737593 0.18286757 0.15613574 111 116 121 255
0.20864035 0.13010184 0.21018447 74 34 49 255
0.2057717 0.13278875 0.25373966 74 32 45 255
0.21362065 0.14194536 0.19547953 62 33 40 255
0.21359308 0.1406958 0.1932167 60 30 37 255
0.17786773 0.11731659 0.26370877 67 19 35 255
0.12486045 0.10056503 0.082558125 3 2 4 255
0.18032451 0.13143757 0.061207615 4 3 6 255
0.09717492 0.08763213 0.09592851 3 3 3 255
0.09268376 0.08328241 0.12554823 2 1 3 255
0.115653925 0.09156963 0.1419213 15 3 6 255
0.256742 0.15670125 0.18919034 109 118 123 255
0.22737193 0.14099038 0.24242634 104 116 122 255
-0.079328835 0.046917923 0.041722313 70 70 74 255
-0.077258185 0.054037496 -0.009723104 122 128 131 255
-0.13001561 0.038325593 0.024155393 126 134 137 255
-0.13033324 0.038660407 0.076494634 70 65 64 255
-0.017027076 -0.25407332 0.026328463 118 134 151 255
0.31626162 0.23044686 -0.123035744 46 47 52 255
0.14759167 0.10691857 0.17835286 41 6 15 255
-0.06568224 0.18270427 0.1182406 212 44 43 255
0.2022726 0.13090962 0.14304502 52 27 38 255
-0.012383677 0.055736586 0.2350351 119 130 133 255
0.13044408 0.0910125 0.13380927 38 2 10 255
0.09716906 0.08007444 0.18260129 17 9 12 255
0.10065672 0.08605084 0.13755573 3 1 3 255
0.106535956 0.09334204 0.11461903 3 1 3 255
0.13825606 0.107860394 0.06486892 3 2 3 255
0.1267523 0.09317149 0.23495919 114 125 131 255
0.15737113 0.11668421 0.12043183 24 2 6 255
0.07314511 0.07068694 0.16599686 7 6 11 255
0.026576364 0.456059 -0.16411264 166 170 177 255
0.14664353 0.107426494 0.11576929 114 122 126 255
0.14653508 0.106953435 0.11487907 113 121 124 255
0.16932803 0.11654539 0.13154164 111 120 121 255
0.035271686 0.062286764 0.35552546 125 137 144 255
0.095187336 0.08456173 0.1099043 121 126 130 255
0.37571022 0.2385721 0.19635598 110 115 119 255
0.15137364 0.11345471 0.08817232 117 124 125 255
-0.0147820655 0.05523153 0.13708192 122 131 136 255
0.12312781 0.09847134 0.09884667 115 126 130 255
0.12269072 0.096346214 0.09464106 114 125 129 255
0.15500613 0.11575542 0.052688424 112 118 127 255
0.2544586 0.17983234 0.03807812 109 117 122 255
0.21761869 0.20590705 -0.1353306 111 114 120 255
0.08048024 0.11817254 0.12204144 85 32 30 255
0.26961374 0.17229474 0.101488896 107 114 121 255
0.26963887 0.17382087 0.105053306 108 115 121 255
0.3598273 0.23301803 0.11691452 43 42 49 255
0.3598273 0.23301803 0.11691452 43 42 49 255
-0.03837906 0.055283036 0.23936093 66 59 64 255
0.20877041 -0.43271422 0.46112758 117 133 157 255
0.27115145 0.17460915 0.08611221 40 42 50 255
-0.004394621 0.054106522 0.32172105 72 72 81 255
0.20237847 0.13839129 0.071554765 2 3 9 255
0.029325213 0.06914214 0.32318488 72 66 73 255
0.1708391 0.11759295 0.112715796 19 1 5 255
0.17587738 0.12366473 0.08604297 15 2 5 255
0.1205552 0.09510321 0.11117371 9 1 5 255
0.086895645 0.077410616 0.15027061 3 1 4 255
0.34088826 0.2557035 -0.0584167 3 9 23 255
0.38796002 0.20674649 0.24467817 29 30 38 255
-0.036564507 0.05230915 0.103894524 69 58 64 255
0.35076565 0.09360037 -0.23430935 53 53 56 255
-0.07725054 0.05398773 -0.0098715415 122 127 131 255
0.07923527 0.32201272 0.019987324 209 26 15 255
0.22144698 -0.45575917 0.4239897 118 131 146 255
-0.056322128 0.09328084 0.06070413 66 39 40 255
-0.08974647 0.5876066 -0.08852264 31 36 45 255
0.13801229 -0.41750222 0.34323904 133 147 162 255
0.22143729 0.31249398 -0.03707255 105 115 125 255
-0.11094646 0.030360075 0.16701509 45 42 44 255
-0.007061721 0.051803578 0.3376508 124 138 147 255
-0.0076750913 0.04961838 0.334835 125 137 144 255
0.44368953 0.21308835 0.1896386 101 114 128 255
0.36597815 0.2462381 0.15191704 38 36 43 255
0.0074579916 0.05899723 0.34777626 60 60 66 255
0.16023587 0.11030737 0.296729 63 39 47 255
-0.052449614 0.23434922 0.06728997 240 10 19 255
0.19469383 0.12442814 0.20892943 63 24 36 255
0.35690662 0.23697141 0.14820632 104 116 123 255
0.25872725 0.16163845 0.2484574 110 121 127 255
0.13838112 0.10814641 0.06547666 1 1 1 255
0.017893912 0.05674937 0.35531405 126 137 144 255
0.11257899 0.09164661 0.09913541 3 1 3 255
0.16517738 0.11353693 0.16458653 110 120 125 255
0.18760729 0.11939987 0.17354567 111 120 125 255
0.11328635 0.090375856 0.15821846 115 122 124 255
0.19239828 0.12812917 0.1518928 116 122 126 255
0.37559316 0.23914342 0.19755732 109 114 119 255
0.25673684 0.18907192 0.011317696 109 115 119 255
0.2614882 0.22646792 -0.10571426 109 116 122 255
0.25154433 0.17067003 0.06360298 110 116 122 255
-0.06579491 0.2212245 0.09020214 236 22 17 255
0.2861206 0.17813966 0.16706371 58 61 66 255
0.2679959 0.15820865 0.26134488 111 116 121 255
0.2679959 0.15820865 0.26134488 111 116 121 255
0.26918983 0.1696224 0.118157476 41 46 50 255
0.08270268 0.096073516 0.096715495 121 128 130 255
0.2209132 0.14220408 0.11623386 39 42 51 255
0.22083367 0.14199206 0.11582397 39 42 51 255
0.5121175 -0.058080364 0.14342916 47 56 70 255
0.15432723 0.108578876 0.24667013 56 17 27 255
0.05303327 0.44662756 -0.119384624 163 167 173 255
0.16205348 0.10947933 0.17474478 52 5 16 255
0.18157499 0.120163396 0.23132065 60 12 26 255
0.12074003 0.0958381 0.112694435 9 2 4 255
0.23447992 0.14062765 0.16409673 104 113 117 255
0.25220537 0.16231833 0.23673901 108 117 124 255
0.33884144 0.12516393 -0.19294785 3 6 11 255
0.4418648 0.21785589 0.18970695 102 116 128 255
0.09631356 0.04774986 0.29764625 44 45 53 255
0.3030626 0.18843818 0.1952453 107 117 124 255
0.23699707 0.17682253 0.045726057 116 116 120 255
-0.055631008 0.048938986 0.05526302 71 69 78 255
-0.061699115 0.21049625 0.08178463 238 21 17 255
-0.096087724 0.0056999605 0.113604516 71 65 65 255
-0.09992058 0.04304585 -0.0078023607 55 52 59 255
-0.24975896 0.4289298 -0.017983673 102 107 110 255
0.08091411 0.07190425 0.27171192 102 102 109 255
-0.0020541952 -0.10554373 0.22914945 44 50 57 255
0.42203477 -0.12791088 0.16498226 72 79 90 255
-0.053805415 0.2284566 0.08088058 234 17 13 255
0.18658483 0.22584878 -0.10069981 49 52 61 255
0.094454326 0.08192557 0.28281128 110 122 129 255
-0.0024321366 0.05191923 0.30175048 119 132 138 255
0.24238506 0.18996842 0.049502682 41 35 41 255
0.3552162 0.22590493 0.1748663 106 116 122 255
0.26425108 0.17280197 0.07939306 44 47 56 255
0.13730706 0.09626876 0.23054479 47 19 29 255
0.17499955 0.11582822 0.15641567 47 6 22 255
0.18753333 0.11923708 0.17319424 108 119 123 255
0.36500296 -0.094354086 0.24160315 100 112 125 255
0.22238018 0.14451647 0.099983126 107 119 126 255
0.2483832 0.15918504 0.08180217 110 118 126 255
0.2483553 0.16107103 0.08611993 106 113 121 255
0.256653 0.18838724 0.00952348 110 116 121 255
0.2696738 0.17366542 0.104418844 108 117 120 255
0.2805166 0.22491847 -0.04662701 64 62 66 255
0.2805166 0.22491847 -0.04662701 64 62 66 255
-0.046993632 0.058414325 0.17511883 69 63 68 255
0.03128959 0.47116658 -0.1590236 182 190 198 255
0.24695046 0.16541336 0.11651269 34 41 49 255
0.24695046 0.16541336 0.11651269 34 41 49 255
0.18544231 0.11891022 0.19069572 59 16 32 255
0.26476112 0.17203526 0.23279586 111 114 120 255
0.12959842 0.104628175 0.05094151 2 2 4 255
0.086869895 0.07759678 0.15061654 4 1 4 255
0.22753213 0.14167988 0.24310747 104 116 122 255
0.20526122 -0.31755674 0.1380242 116 130 146 255
-0.24858077 0.34218606 0.010014862 133 139 142 255
0.30564275 0.19869842 0.17389971 112 120 126 255
0.1670692 -0.01669898 0.22106569 10 13 25 255
-0.013072259 0.045249186 0.33113602 125 135 144 255
-0.013213344 0.044840865 0.330684 126 136 145 255
-0.09103945 0.052235752 -0.0005479492 131 129 136 255
0.12364306 -0.30735138 0.3883129 105 110 118 255
0.096532635 -0.30153438 0.34174538 103 107 116 255
0.19889171 0.19235748 -0.14832775 115 119 124 255
-0.12933129 0.024079083 0.13259083 146 147 150 255
0.3332489 0.13034278 -0.25380853 4 5 8 255
0.23533525 0.15131934 0.1259283 41 44 52 255
0.15709208 -0.056791987 -0.17835781 21 3 9 255
0.049845107 0.064169325 0.3451962 115 127 134 255
0.3615795 0.1303307 -0.19984129 107 116 121 255
0.36858132 0.24104851 -0.04662712 11 22 32 255
0.024576856 0.05437802 0.18452974 113 129 133 255
-0.24783449 0.37160543 0.015125951 46 50 54 255
-0.08868946 0.04489054 0.0839788 124 132 138 255
0.13892995 0.23608649 -0.11600319 147 111 117 255
0.36116663 0.23970343 -0.0365611 77 81 83 255
0.37950015 -0.12531485 0.2117502 79 87 99 255
-0.10319133 0.5466264 -0.16582906 175 180 188 255
0.083562605 0.093480766 0.112465404 3 2 4 255
0.018855797 0.06080746 0.36212116 123 133 140 255
-0.061489593 0.04645634 0.19870403 119 134 140 255
-0.039929748 -0.0040831845 0.3376068 85 94 106 255
0.23780037 0.15656908 0.08004642 7 11 18 255
0.23780037 0.15656908 0.08004642 7 11 18 255
0.18440992 0.12761804 0.2716239 122 126 131 255
0.18447404 0.12714894 0.27096963 120 125 130 255
-0.008771467 0.049857624 0.35278958 53 55 62 255
-0.07255141 0.22965428 0.07059347 235 11 4 255
0.3663549 0.22912356 0.2068963 110 117 121 255
-0.0756767 0.037746627 0.12937658 69 62 67 255
0.19825861 0.13138317 0.09829075 20 13 23 255
0.10222809 -0.07432699 -0.036476497 56 48 55 255
-0.027755843 0.17835054 0.07651359 250 76 64 255
0.18731096 -0.41480795 0.3754517 119 136 157 255
-0.15799144 0.02288071 0.058104586 59 59 61 255
0.1386376 -0.36088476 0.37004408 102 107 115 255
0.39067277 0.27481276 0.14340086 35 35 39 255
-0.12285794 0.02190348 0.08431446 65 58 57 255
-0.12202927 0.024583995 0.088591695 65 58 57 255
-0.2414063 0.33590505 0.020834126 40 44 49 255
0.27716374 0.17677203 0.13494287 49 50 56 255
0.27711952 0.17672035 0.13485612 48 50 56 255
0.26082677 0.16623487 0.10680875 36 36 44 255
-0.05270821 0.046540562 0.03738145 123 130 135 255
0.20553638 0.1463999 0.069957286 105 113 121 255
0.5270558 0.008780517 0.09999666 93 106 118 255
-0.06587197 0.15208842 0.20318669 127 134 138 255
-0.11455163 0.02861763 0.10300328 67 61 62 255
0.66853833 -0.18101498 0.18243563 80 93 111 255
0.18551035 0.13441284 0.028393798 1 3 6 255
-0.1050859 0.044613354 0.13494164 48 41 42 255
-0.06704578 0.18603158 0.08816094 209 24 21 255
-0.024307027 0.05273701 0.34082472 51 51 54 255
0.5328142 0.014121071 0.11169794 66 78 90 255
-0.24100204 0.32531482 -0.00077609386 41 48 55 255
0.008161067 0.33370602 0.09224822 193 181 175 255
-0.28871754 0.45812094 -0.090433665 39 42 49 255
0.16597342 0.13577636 0.019527487 118 121 125 255
0.056216083 0.17995468 0.08133629 249 67 60 255
0.12805964 0.3138505 -0.188407 138 132 139 255
0.17266728 0.20789178 -0.14772652 7 6 14 255
-0.06947998 0.1275226 0.07725107 51 19 24 255
-0.078407615 0.044924542 0.15482093 121 133 141 255
0.2395105 0.22638807 0.036923267 8 9 14 255
-0.09004911 0.039448615 0.16780776 53 47 47 255
-0.043739997 0.056411788 0.030764822 130 130 135 255
-0.21937728 0.43103817 0.06001856 226 237 248 255
0.05577264 0.25090447 0.10967598 245 55 46 255
0.24467352 0.19691637 0.032714143 36 34 38 255
0.122053966 0.107849896 0.040709574 3 2 2 255
-0.29189968 0.4932991 -0.048270784 155 161 168 255
0.04561207 0.21908087 0.0063703894 238 55 49 255
-0.21890648 0.33132735 0.0756193 142 148 151 255
0.015895892 0.019310521 0.37981856 88 104 126 255
0.10303576 0.07251631 0.3700085 41 41 46 255
0.25187215 0.16182393 0.15290852 40 45 50 255
0.12064258 0.082544774 0.19255741 45 7 17 255
0.12064258 0.082544774 0.19255741 45 7 17 255
0.13026235 0.09555637 0.143977 30 3 9 255
0.12532136 0.091651455 0.17237791 33 2 9 255
-0.015408612 0.052519903 0.18594763 71 43 51 255
-0.015408612 0.052519903 0.18594763 68 42 50 255
0.25405625 0.16792586 0.124529354 36 39 42 255
0.17948711 0.12264313 0.12922913 42 4 13 255
0.17954199 0.12276379 0.12938929 43 4 12 255
0.18597989 0.12486979 0.12013731 38 2 11 255
0.16402747 0.11676414 0.16929403 105 118 126 255
0.105507515 0.0889233 0.10595887 3 1 3 255
0.16573451 0.12143836 0.050148465 2 1 3 255
-0.026517875 0.05015839 0.1115064 59 27 40 255
-0.026327401 0.05067794 0.11212221 65 32 46 255
-0.06121753 0.047544427 0.20006503 120 133 141 255
0.11269094 0.08911545 0.15526354 117 126 133 255
0.089742124 0.08342831 0.14391261 116 125 130 255
0.26635826 0.1678525 0.1334907 107 116 121 255
-0.03620693 0.10134096 0.28581658 117 132 138 255
0.19036423 0.12942693 0.1521928 105 121 124 255
-0.11340667 0.03684507 0.061135456 125 136 143 255
0.15508515 0.11482306 0.05107063 112 118 128 255
0.19563127 0.12640128 0.10803847 104 119 125 255
0.01681082 0.0522675 0.21018429 115 130 132 255
-0.07180202 0.043924965 0.12299266 123 134 142 255
0.24230331 0.16457164 0.13279863 103 117 120 255
0.21817166 0.13841943 0.12784444 108 117 124 255
0.21774551 0.14023186 0.13101809 108 118 124 255
-0.10287436 0.05759104 0.06760843 125 131 137 255
-0.053663444 0.04604585 0.2869187 88 84 84 255
0.18899724 0.13049084 0.0766554 10 2 6 255
-0.033004887 0.05095532 0.20191029 77 51 61 255
-0.016445616 0.05009752 0.24064189 79 50 61 255
0.24704158 0.15779312 0.0996847 21 29 35 255
0.24687122 0.15863058 0.101158865 21 29 36 255
-0.03593279 -0.012581101 0.2627241 76 73 78 255
-0.023331525 0.048995685 0.26844025 73 63 69 255
0.19910318 0.12756537 0.09142702 22 13 24 255
0.0017966371 0.05898003 0.29437158 74 63 70 255
0.19227989 0.13246459 0.13793962 45 20 30 255
0.13389075 0.09133977 0.17851296 39 3 16 255
0.18835312 0.1137225 0.32732654 42 42 46 255
0.09687116 0.0868892 0.09493675 4 1 3 255
0.17107633 0.11826014 0.1145792 23 3 9 255
0.09195687 0.081291996 0.12184974 3 2 4 255
0.10484408 0.08175092 0.32967317 60 60 67 255
-0.06762671 0.04696492 0.114062555 74 67 73 255
0.1528596 0.11108209 0.06332563 3 2 2 255
0.17535405 0.12462437 0.087856695 11 5 8 255
0.17541945 0.12415185 0.08692218 10 5 8 255
-0.009174301 0.054779615 0.21808293 78 50 63 255
0.11005009 0.083766386 0.16327225 11 3 5 255
0.16150059 0.11188697 0.17879492 46 8 18 255
0.16716582 0.10988963 0.13767585 39 4 18 255
-0.04376323 0.047040276 0.1250335 77 47 57 255
-0.07178383 -0.10541819 -0.12064335 73 51 60 255
-0.0796492 0.045482773 0.03987141 71 72 75 255
-0.055469245 0.048618536 0.05606211 71 68 75 255
-0.037623838 0.046525735 0.094211735 72 48 56 255
-0.015114969 -0.10720719 -0.09721149 64 32 44 255
-0.030702917 0.05033868 0.070704974 61 39 49 255
-0.100968406 0.3543936 0.09133602 18 18 18 255
0.022123659 0.05167726 0.37714988 40 39 43 255
0.1536389 0.21441647 -0.1286082 179 75 68 255
-0.14980774 0.062416185 0.041937657 72 70 72 255
0.34727046 0.22823934 0.1547634 45 45 51 255
0.34727046 0.22823934 0.1547634 45 45 51 255
0.3307925 0.21861114 0.097070456 51 50 53 255
0.12985313 0.08491041 0.33517084 46 44 49 255
0.35330018 0.23361559 0.18931305 105 116 125 255
0.352938 0.2344348 0.19073342 105 116 125 255
0.26813588 0.20446947 -0.026240595 40 38 43 255
0.35788286 0.23566322 0.14482042 104 117 123 255
0.13025811 0.0952989 0.14361775 31 4 10 255
-0.02046509 0.047045544 0.25166416 120 134 142 255
-0.020315684 0.048011545 0.2532035 121 133 142 255
-0.043933798 0.049653217 0.24430549 119 135 143 255
0.32502457 0.24160242 0.06720354 43 43 46 255
0.33883324 0.24171071 0.07424335 101 113 119 255
0.3662208 0.22504851 0.07340507 103 115 121 255
0.19002147 0.1318463 0.09353997 25 2 11 255
0.13527098 0.10094517 0.115943156 19 0 6 255
0.33529907 0.23736712 0.11263463 104 116 123 255
0.10056985 0.08334156 0.1327414 3 1 3 255
0.10731238 0.08597505 0.12620345 4 1 4 255
0.12830359 0.09952914 0.12580474 18 3 3 255
0.16934896 0.114759065 0.12800455 118 128 132 255
0.14049855 0.10373387 0.08339614 6 1 4 255
-0.02648781 0.05091735 0.11277274 57 26 39 255
0.00068933517 0.053008933 0.17218238 112 127 129 255
0.25868127 0.20969185 -0.04179135 108 117 123 255
-0.07316808 0.036596566 0.11050481 118 132 139 255
0.25168705 0.1702267 0.062478952 109 115 122 255
0.25131974 0.17158289 0.06520865 106 114 121 255
-0.095542565 0.044867873 0.113989614 121 133 139 255
0.25295168 0.18464567 0.047614165 106 118 123 255
0.19880438 0.12798315 0.30136535 113 124 130 255
0.1987452 0.12842253 0.3020295 113 124 130 255
0.25468048 0.21298489 0.01537899 106 115 121 255
0.22732916 0.1401706 0.28565726 107 115 122 255
0.2540922 0.15568185 0.27426025 106 114 121 255
0.26497456 0.13680746 -0.29926848 113 120 126 255
0.24035837 0.21149208 -0.12874061 114 122 130 255
0.24900171 0.21367256 0.06689749 111 116 122 255
0.21264848 0.13974126 0.30395263 109 117 122 255
0.21764785 0.20850897 -0.12317149 111 118 124 255
0.21824324 0.20603588 -0.12901011 112 119 125 255
0.3354347 0.21969965 0.14534593 45 49 51 255
0.3354347 0.21969965 0.14534593 45 49 51 255
0.23910427 0.19038384 0.059690032 33 28 33 255
-0.041475564 0.029874496 0.30158794 85 79 83 255
0.34331426 0.21264349 0.2255749 106 113 120 255
0.34332916 0.21265633 0.22554182 107 113 120 255
0.13473365 0.09466798 0.32087517 60 59 64 255
0.3351584 0.22713299 0.19092555 113 118 122 255
0.3351584 0.22713299 0.19092555 113 118 122 255
0.008257895 0.05431747 0.25831935 87 60 73 255
0.14289759 0.10532898 0.12984887 25 4 10 255
0.11976024 0.09788099 0.11599639 2 0 3 255
0.15239532 0.115306765 0.07111851 2 1 4 255
0.15680458 0.11995339 0.040190507 2 1 5 255
0.04576869 0.016999196 0.1513025 79 85 93 255
0.015036213 0.056558758 0.23210514 83 69 79 255
0.015036213 0.056558758 0.23210514 83 69 79 255
0.07605904 0.06855736 0.20289859 55 61 68 255
0.11510252 0.09050681 0.13939454 12 2 5 255
-0.0024389494 0.051425245 0.18422478 69 35 49 255
-0.0024394589 0.051382516 0.18428272 70 36 49 255
0.021817543 0.055991277 0.20191248 77 70 78 255
0.021836212 0.057087187 0.20404494 77 68 77 255
-0.07791528 0.0014209638 0.15832852 63 58 60 255
-0.061258122 0.04782007 0.08484828 72 66 71 255
0.02851996 0.05888288 0.17536707 67 65 72 255
0.32464144 0.2155602 0.19554742 110 118 125 255
0.32844123 0.21834497 0.1574443 109 121 127 255
0.052263986 0.067748845 0.1957368 55 60 66 255
-0.025493873 0.04322763 0.050206162 124 128 133 255
0.1797871 0.19465403 -0.12387757 7 6 14 255
0.1797871 0.19465403 -0.12387757 7 6 14 255
0.38740966 0.22936285 -0.048387125 139 156 171 255
0.10115758 0.31016076 -0.19279343 110 118 124 255
0.26821324 0.23549803 -0.0937317 54 54 58 255
0.33645645 0.213335 0.19852546 110 115 120 255
0.24694516 0.23393781 -0.16647165 53 55 58 255
-0.014373504 0.04994583 0.34205234 65 69 76 255
0.22299215 0.21101406 -0.1624069 123 126 133 255
-0.043397967 0.18921396 0.27916518 71 68 75 255
0.08644581 0.11111152 0.1289979 2 2 3 255
0.42710486 0.21674445 0.21261795 3 10 24 255
0.26593342 0.21029958 -0.01215559 37 34 40 255
0.20239429 0.13403213 0.1494089 53 32 42 255
0.27176896 0.185489 0.016270487 41 39 46 255
0.27176896 0.185489 0.016270487 41 39 46 255
0.16714492 0.12156377 0.07701709 4 1 5 255
0.107153915 0.08671879 0.12751742 4 2 4 255
0.16305442 0.11449563 0.10241413 18 0 7 255
0.14454283 0.110385016 0.05746978 3 0 3 255
-0.03704287 0.051022355 0.21602544 117 133 139 255
0.14067604 0.10297171 0.32616636 113 123 130 255
0.09750816 0.085718445 0.34384397 111 123 131 255
0.3544607 0.24834946 0.14842358 35 38 42 255
-0.03046688 0.05025685 0.051182397 115 129 136 255
0.104625136 0.08315013 0.3313316 62 61 68 255
0.03839281 0.23837891 0.023754757 241 46 36 255
0.1378007 0.10243256 0.16068852 32 4 14 255
0.17980921 0.12802099 0.054347143 3 2 5 255
0.17990439 0.12671131 0.051758364 3 2 6 255
0.17100242 0.11893253 0.11558566 19 4 11 255
0.35044414 0.23023191 0.1738472 105 114 121 255
-0.085422084 0.04498025 0.06874652 72 73 77 255
0.23859468 0.14726052 0.13525881 112 120 128 255
-0.013778005 0.064606756 0.11592 121 133 136 255
0.18379779 0.18968111 -0.16333486 42 44 52 255
0.18323995 0.19325268 -0.1550052 40 43 50 255
0.16637646 0.23230822 -0.038499277 148 110 112 255
0.11408198 0.10293413 0.034805812 118 70 68 255
0.119163856 0.08932088 0.3011774 108 123 129 255
-0.020937761 -0.3368829 -0.34547073 72 43 54 255
-0.029343596 0.05426542 0.24453807 73 48 57 255
0.008754574 0.055092566 0.19997409 70 48 58 255
0.3189762 0.20870112 0.17963305 42 43 49 255
0.26478407 0.18363962 0.02677001 36 34 41 255
-0.12919481 0.09190505 0.07405048 244 246 248 255
-0.020374367 0.043696214 0.24622402 118 136 144 255
0.18971595 0.23770277 -0.12718584 26 28 38 255
0.06638212 -0.19329531 -0.18236515 52 57 66 255
0.06638212 -0.19329531 -0.18236515 52 57 66 255
0.024782281 0.052907683 0.18242161 113 130 134 255
0.111436374 0.087889075 0.33044702 112 124 132 255
0.12722385 0.09931092 0.3365184 112 124 131 255
0.09700634 0.08931247 0.3485543 112 123 132 255
0.009392842 0.05415622 0.24084203 110 130 134 255
0.009392842 0.05415622 0.24084203 110 130 134 255
0.06643587 0.07579153 0.35270756 113 126 133 255
-0.015819304 0.053514313 0.22677122 122 136 150 255
0.3207253 0.19231904 0.23514792 104 112 117 255
0.24236283 0.14859673 0.2830366 110 116 122 255
0.2024759 0.19773182 -0.10629326 53 54 59 255
0.1076565 0.32455474 -0.123551264 186 72 64 255
-0.056483388 0.042713415 0.02624617 120 129 133 255
-0.016469795 0.051124774 0.24146646 76 46 56 255
-0.06755705 0.047983296 0.11590572 76 65 72 255
-0.04352124 0.052005135 0.13246278 78 44 55 255
0.25489786 0.20678744 -0.0558277 111 119 126 255
-0.30910647 0.5421463 -0.02683827 193 200 208 255
-0.09289553 0.14179206 0.19238786 116 128 132 255
0.055539265 0.23773871 0.078036845 231 49 41 255
0.14753447 0.09650251 0.32809216 45 47 54 255
0.37939847 0.22104646 -0.04618278 26 29 32 255
-0.08742025 0.02068881 0.15688877 74 69 69 255
0.095086806 0.31564584 -0.037566744 237 35 27 255
-0.1343174 0.6317818 -0.14096525 179 180 180 255
-0.27710405 0.45612776 -0.072593525 49 54 55 255
0.24290417 0.15785761 0.26794392 41 41 49 255
0.07014104 0.08061481 0.3305225 63 55 61 255
0.11941401 0.087690264 0.2989458 108 123 129 255
0.087081246 0.08936389 0.32501426 110 125 134 255
0.23199785 0.15152918 0.26977992 104 115 123 255
0.23199785 0.15152918 0.26977992 104 115 123 255
-0.022716124 0.0516577 0.15934682 114 128 133 255
-0.046400484 0.053148035 0.14981683 116 130 138 255
0.03467456 0.061322004 0.35398042 114 126 132 255
0.25493565 0.19880515 0.03289624 108 116 124 255
0.36854187 0.23840308 0.15216397 33 34 41 255
0.073030196 0.07779864 0.34657165 59 59 68 255
0.04180509 0.06934025 0.3573839 49 55 63 255
0.34786287 0.21655107 0.21569446 35 39 47 255
0.34786287 0.21655107 0.21569446 35 39 47 255
0.11128676 0.09730649 0.30015653 109 123 127 255
0.11128676 0.09730649 0.30015653 109 123 127 255
0.15193357 0.11706848 0.07391012 2 1 5 255
-0.009724932 0.053333238 0.21546462 72 41 50 255
-0.009748958 0.05637112 0.21956763 72 40 50 255
0.23838441 0.15892202 0.25055462 111 119 124 255
-0.07108814 0.19883905 0.11525962 231 49 38 255
0.34836268 0.068262696 -0.22819853 34 31 35 255
0.012283915 0.47427958 -0.16778956 183 190 198 255
-0.0669485 0.029261986 0.02407172 6 5 11 255
-0.0109131 0.28803557 0.08070396 237 37 31 255
-0.26060402 0.5018729 0.036257192 245 248 249 255
0.18720092 0.30180156 0.009773981 52 54 65 255
0.19412792 0.18852949 -0.13573472 45 49 53 255
-0.16175109 0.510005 -0.0024880436 185 188 186 255
-0.059657335 0.21658705 0.059945077 232 13 17 255
-0.14045227 0.08979311 0.050296504 56 52 52 255
0.02607459 0.062066067 0.1482579 24 31 42 255
0.25519183 0.21263 0.018231193 110 115 123 255
-0.09645612 0.12951311 0.1813144 127 131 137 255
-0.036584076 0.23219922 0.06826954 250 65 65 255
-0.010618312 0.09561393 0.14771385 38 22 31 255
0.21092886 0.22023718 -0.15453117 64 66 72 255
0.1880895 0.19474751 -0.14378135 30 30 35 255
0.029007943 0.056960795 0.15241928 113 128 134 255
-0.07155406 0.141886 0.15128358 62 58 65 255
-0.2311229 0.41407686 0.009467589 227 237 248 255
-0.233354 0.40143183 0.028923327 232 241 250 255
0.0035841456 0.49926648 -0.08207061 9 14 23 255
-0.12840472 0.04308885 0.01576291 56 59 63 255
-0.050181013 0.22066678 0.063994355 231 39 41 255
0.19900441 0.34690955 -0.07743332 120 137 149 255
0.07249457 0.41272566 0.023730354 119 137 155 255
-0.0006565253 0.060839787 0.11180764 32 18 26 255
0.013195486 0.058446303 0.14671567 122 119 124 255
-0.03714815 0.2565671 0.0951258 253 97 92 255
0.1991435 0.30419993 0.008842693 44 46 49 255
-0.04166644 0.47904906 -0.21303849 173 176 178 255
0.19968514 0.34476066 -0.082618155 120 134 145 255
-0.124295875 0.22159512 0.09015871 251 123 115 255
-0.12434202 0.21064083 0.07145398 253 116 108 255
0.23673062 0.19395222 0.070724815 14 17 24 255
0.19990705 0.221567 -0.030217268 46 47 53 255
0.13679336 0.31255284 -0.017084718 243 72 63 255
0.012628874 0.061268 0.15057006 121 119 124 255
-0.13781303 0.17045845 0.1204348 123 125 138 255
0.0011271542 0.4623593 -0.09112366 203 207 211 255
0.24323745 0.16246252 0.041214664 15 14 21 255
0.08504444 0.1249374 0.14820397 1 1 4 255
0.018780895 0.473852 -0.167041 12 19 29 255
-0.23638822 0.39750215 0.04730534 42 50 59 255
0.22801533 0.22971141 -0.019487929 42 42 46 255
-0.28876355 0.5390678 0.04488332 53 54 57 255
-0.013011709 0.049139977 0.04553548 29 4 8 255
0.2552506 0.31251866 -0.1741645 189 199 206 255
0.118661515 0.11285167 0.059573732 0 2 2 255
0.09801823 0.31703365 -0.0031886895 223 59 50 255
0.20274678 0.18511689 -0.16157322 112 120 125 255
-0.0026070331 0.0716581 0.115216196 40 6 17 255
-0.018058084 0.5126232 0.025898363 199 203 203 255
-0.075616434 0.55448115 0.05086978 194 198 203 255
0.21322747 0.20922877 0.12156498 2 4 9 255
-0.08068398 0.20073467 0.10829326 239 36 25 255
-0.009079372 0.47794282 -0.19113857 166 147 148 255
0.07661873 0.42193493 0.00051324646 113 127 136 255
-0.03512717 0.25385544 0.08841974 254 100 93 255
0.07721134 0.14557956 0.12265028 128 42 35 255
0.01441311 0.48227167 -0.18016882 182 191 200 255
-0.009878284 0.10239747 0.12361417 27 6 11 255
0.07999861 0.4182436 0.029891603 129 148 160 255
-0.13364889 0.08594514 0.026967777 49 42 41 255
0.054558333 0.33540627 0.0343404 183 8 19 255
0.2006622 0.25997633 -0.07447817 49 56 64 255
-0.030544847 0.04549403 0.039533038 113 126 133 255
-0.0047830655 0.04373718 0.047044966 115 123 131 255
0.17802964 0.22804561 0.0031307875 46 34 39 255
-0.04491838 0.23386948 0.07090952 252 72 77 255
0.097237125 0.3856001 0.016761024 155 114 120 255
0.24346313 0.23385645 0.06879891 19 12 17 255
-0.005789044 0.47796106 -0.16963047 177 180 181 255
0.01435851 0.47393993 -0.18665417 12 18 28 255
-0.16677329 0.51284957 -0.01768891 172 176 178 255
0.04658142 0.46976578 -0.055442512 10 12 15 255
0.0033196327 0.4791073 -0.16517507 176 181 185 255
0.062431246 0.35846236 0.03062173 245 173 165 255
-0.11245116 0.066773064 0.08105037 59 58 65 255
0.19863307 0.29679886 -0.0030140944 39 39 44 255
-0.116928294 0.5132472 -0.16108976 171 176 183 255
0.15144067 0.17138822 0.06682612 154 94 96 255
0.20761506 0.31152144 0.003125027 40 40 44 255
-0.08231618 0.5551635 -0.052511036 9 13 23 255
-0.08231618 0.5551635 -0.052511036 9 13 23 255
0.28004715 0.27907786 -0.17251213 46 47 53 255
0.002168713 0.48295122 -0.18368997 190 198 207 255
-0.20123352 0.25167114 -0.0400917 105 117 129 255
0.1790483 0.13156389 0.033203665 96 103 109 255
0.24968119 0.17058711 0.055166785 106 116 127 255
0.24968119 0.17058711 0.055166785 106 116 127 255
0.2456765 0.22353832 -0.13730478 104 111 116 255
0.0038662713 0.060799092 0.09359921 24 4 16 255
0.19987845 0.1935096 -0.07828544 11 12 18 255
0.020889493 0.17996113 0.10257465 251 85 80 255
0.022104569 0.17787994 0.10019046 253 83 78 255
0.06688243 0.32701376 0.042188227 219 87 82 255
0.03360318 0.08824304 0.18340102 16 24 35 255
0.09397649 0.41908577 -0.1550644 1 2 6 255
0.06535489 0.38434622 0.037321523 231 177 176 255
-0.2859098 0.36111617 -0.05115429 104 113 123 255
-0.24571858 0.4569574 -0.01526857 45 50 52 255
0.018601486 0.27779096 0.056484845 227 179 49 255
-0.3035967 0.53209466 0.011599898 203 208 211 255
-0.0076592863 0.11429768 0.122006655 226 150 153 255
0.26503804 0.28627667 -0.15932257 50 51 56 255
0.14558344 0.25909725 0.0035533272 158 107 109 255
-0.29346442 0.58300495 0.13282505 246 248 251 255
0.18312782 0.24632587 0.024516612 39 36 44 255
0.22903435 0.1739456 0.07903717 106 112 119 255
0.25262904 0.19088516 0.062109925 106 112 118 255
0.10486651 0.10332666 0.08073723 3 2 5 255
0.23413931 0.16526237 0.06513457 108 113 118 255
-0.0011878874 0.05802873 0.060494028 34 8 7 255
0.01790874 0.3219606 0.068884626 255 181 175 255
0.23761225 0.21334358 0.07557837 5 6 10 255
-0.009170967 0.050792348 0.054690845 114 120 127 255
0.04673305 0.33465785 0.05247731 203 28 31 255
-0.013827755 0.07855329 0.09685199 110 123 131 255
0.19344364 0.1961498 -0.13922691 123 111 112 255
0.21096618 0.17053096 0.091675006 98 111 122 255
-0.071475685 0.58611125 -0.14630486 29 33 36 255
-0.09770917 0.042221196 0.04890946 60 55 59 255
0.197681 0.19414149 -0.13224998 51 47 56 255
0.0054549007 0.06353856 0.10730216 28 21 32 255
0.278193 0.28694367 -0.15093096 7 6 14 255
0.22989619 0.24436902 -0.0852346 38 37 43 255
0.15044197 0.15629333 0.06334674 1 1 4 255
-0.08618842 0.55110675 -0.025900792 14 20 30 255
0.19732282 0.17353168 0.09763054 1 2 6 255
0.023952536 0.3207039 0.067385264 222 55 46 255
0.16916628 0.23418364 -0.042941682 37 38 45 255
-0.0034556577 0.3441402 0.09293128 5 2 3 255
-0.008155353 0.048404504 0.051716052 115 120 128 255
0.25870752 0.2178594 -0.020963078 107 111 118 255
-0.28615677 0.5239371 0.01900368 94 101 107 255
-0.13339937 0.14909808 0.090290666 56 42 46 255
0.042336304 0.30857107 0.048127815 228 69 61 255
-0.038638588 0.51805025 -0.06622485 17 23 29 255
0.016825905 0.06209065 0.15408882 47 52 57 255
0.098541364 0.12884122 0.109394915 3 2 3 255
-0.08324451 0.5727789 -0.07383622 27 31 39 255
-0.060244672 0.5172914 -0.07891976 9 16 27 255
0.058534224 0.4598602 -0.15831205 45 46 52 255
0.13615543 0.14883687 0.06948744 1 2 4 255
0.2611694 0.21725132 0.009765292 15 16 23 255
-0.06752807 0.22583836 0.06508968 237 10 13 255
-0.011178813 0.058255654 0.055339273 26 5 9 255
-0.09189943 0.033419315 0.05677235 122 128 136 255
0.101199 0.13380341 0.08280405 123 69 67 255
0.025524305 0.44643107 0.051121857 191 192 194 255
0.036697943 0.42703933 0.058180302 35 29 31 255
0.06879037 0.13874438 0.18898591 1 1 4 255
-0.063146956 0.20442683 0.077193014 241 50 40 255
0.006246442 0.31916445 0.07945016 254 190 177 255
0.18891084 0.21082737 -0.025165997 27 22 28 255
0.18934834 0.21034306 -0.026045162 29 23 29 255
0.22130312 0.2098921 0.09378243 191 197 201 255
-0.012294222 0.21707937 0.11172656 252 79 70 255
-0.090337135 0.57832485 -0.05878498 23 30 37 255
0.23153329 0.227529 -0.11593784 38 42 47 255
0.07790735 0.08561908 0.16667478 92 104 111 255
-0.064451575 0.14763056 0.14328441 38 4 9 255
0.2553323 0.21246235 0.017794684 109 115 123 255
-0.15983881 0.5038969 -0.041939307 195 198 193 255
0.056212258 0.120030396 0.19395645 19 23 28 255
-0.05290488 0.20763722 0.06306534 221 10 9 255
0.23269106 0.2135105 -0.13156967 107 112 120 255
0.0020909198 0.061260812 0.06806479 27 1 2 255
-0.083854906 0.62998915 -0.20787388 186 191 195 255
0.20850082 0.20475394 0.10489906 199 201 210 255
-0.07279531 0.20882921 0.083486654 232 19 17 255
-0.30360246 0.54273766 -0.0949191 106 117 127 255
-0.23667 0.38965943 0.0059881373 44 50 59 255
0.3011032 0.26789698 -0.13012686 108 127 145 255
-0.06658566 0.1964795 0.10069499 251 75 59 255
0.04477941 0.17827147 0.10182724 242 82 78 255
-0.31504452 0.596167 -0.014984232 161 171 183 255
0.060757745 0.23097476 0.07043421 238 70 64 255
0.099549405 0.14074367 0.1025237 98 111 120 255
0.11792245 0.11218687 0.068331175 103 112 121 255
-0.08578664 -0.009962918 -0.0131169455 119 128 135 255
-0.058933455 0.20459546 0.078303725 237 27 18 255
0.15343311 0.1546402 0.052259807 170 100 101 255
-0.06474684 0.15016162 0.14913394 102 110 119 255
0.11463292 0.1292691 0.07712249 1 2 4 255
-0.057624865 0.2551347 0.082806505 253 100 95 255
-0.03389575 0.22760928 0.07241908 254 72 69 255
-0.09793847 0.120341435 0.15411484 39 29 32 255
0.1225332 0.221331 0.087036006 246 99 92 255
0.19287096 0.31371513 0.01570466 33 33 39 255
-0.3124128 0.6150138 -0.010642424 169 181 191 255
-0.22122407 0.30793962 -0.06710707 41 48 57 255
0.14865139 0.29424033 -0.016760798 177 111 113 255
0.06799056 0.0969871 0.17650045 100 111 119 255
-0.21543266 0.5939895 -0.06857731 203 200 203 255
0.17963858 0.23102418 0.08530294 235 232 238 255
-0.08264129 0.30174124 0.10403666 233 222 215 255
0.25391436 0.21611746 -0.0020929952 209 207 210 255
-0.06589311 0.5205791 -0.06970179 6 13 22 255
-0.293439 0.63812137 -0.014549456 173 185 196 255
-0.0008627122 0.27463305 0.07710948 243 74 63 255
0.05290914 0.29624927 0.04214428 214 68 59 255
0.15787199 0.13583158 0.051957965 97 101 108 255
0.15750453 0.13620609 0.052412763 98 102 108 255
-0.07348787 0.54279655 -0.064282715 176 183 191 255
-0.07760893 0.5463916 -0.053447533 174 182 190 255
0.023584956 0.23634243 0.23203456 4 4 7 255
0.00361488 0.31655106 0.08187669 217 177 39 255
-0.3126693 0.5998967 -0.043001376 162 174 187 255
0.043385744 0.46308324 -0.18120088 34 41 50 255
0.059715517 0.0864631 0.17716753 102 109 115 255
-0.19794573 0.571184 -0.19091955 33 36 40 255
-0.19794573 0.571184 -0.19091955 33 36 40 255
-0.008948409 0.35229903 0.09234842 214 212 213 255
-0.10572049 0.6230251 -0.10546994 185 183 190 255
0.21195619 0.31772494 0.0003284691 21 25 28 255
-0.09622123 0.6004693 -0.07145348 27 34 43 255
-0.08195769 0.024232052 0.02116704 103 116 128 255
-0.22430792 0.30961716 -0.05350055 104 112 120 255
0.025599161 0.13828847 0.15954463 227 229 238 255
-0.06896114 0.6139223 -0.23837534 37 38 43 255
0.097713776 0.4239232 -0.16926973 192 190 186 255
-0.060008578 0.2803321 0.09262079 242 215 210 255
-0.116365544 0.112354584 0.1188164 242 243 246 255
0.060303614 0.17694403 0.15952443 208 195 198 255
-0.0811282 0.5751129 -0.0800489 187 194 202 255
0.13159959 0.12031051 0.06257354 101 107 113 255
0.2646115 0.2146432 -0.006622566 18 18 26 255
0.20929389 0.18041928 0.09475706 6 9 15 255
0.03283936 0.07654816 0.17507531 90 97 104 255
0.12090568 0.09928807 0.08594182 104 110 116 255
-0.0022470332 0.10032724 0.11830003 115 114 123 255
0.062416013 0.45675057 -0.16621341 45 45 53 255
0.04409426 0.08046068 0.17336085 7 16 26 255
0.16698782 0.14788713 0.051530108 92 102 110 255
-0.012393814 0.48752204 -0.16172145 25 31 39 255
0.06197192 0.4570305 -0.1476837 44 49 54 255
-0.16123432 0.5100473 -0.033926956 183 186 182 255
0.22951606 0.16408847 -0.07847643 177 105 101 255
0.09441535 0.43332592 -0.16585776 34 31 34 255
-0.2235855 0.39572114 -0.12995146 101 110 119 255
-0.2233237 0.3950024 -0.13146238 101 110 119 255
-0.08322617 0.23437044 0.08415503 244 20 12 255
0.08794018 0.44745922 -0.1542985 52 51 54 255
0.19496396 0.17219755 0.09490677 1 4 10 255
-0.12970075 0.14865686 0.09738932 239 235 243 255
0.06911627 0.31599182 0.043564226 209 77 63 255
-0.10104215 0.62942517 -0.15495245 38 38 45 255
-0.2524498 0.45982966 -0.037994094 104 112 118 255
0.22308259 0.18782334 -0.11570935 103 115 128 255
-0.070373535 0.20923562 0.1032997 242 40 20 255
0.25750485 0.21651575 -0.014068461 18 20 27 255
0.046086363 0.1949532 0.1026979 246 87 83 255
0.065438814 0.11671941 0.17965515 213 214 218 255
-0.205605 0.5820206 -0.13006178 28 30 35 255
-0.20646495 0.5542527 -0.01585003 186 186 183 255
-0.10723922 0.097651884 0.08457604 235 243 250 255
0.13843313 0.14644264 0.06686601 2 2 5 255
0.0032655105 0.099261485 0.16926615 222 231 240 255
0.20303592 0.15600558 0.086669914 97 105 113 255
0.11737679 0.10073388 0.08378492 7 2 2 255
0.011435406 0.3374184 0.09426122 227 75 62 255
0.12297123 0.14318053 0.07612634 2 1 5 255
-0.048901338 0.11848139 0.11845014 18 1 9 255
0.26743287 0.21884657 0.024459392 16 14 20 255
0.18240905 0.2477624 -0.07625106 68 57 60 255
-0.006451898 0.3565845 0.09447445 213 208 208 255
