ply
format ascii 1.0
element vertex 1215
property float x
property float y
property float z
property uint8 red
property uint8 green
property uint8 blue
end_header
-1.170441 2.209759 -6.207032 118 133 156
-1.828467 4.062603 -4.856076 117 134 157
-0.315115 1.509856 -3.847835 87 100 123
0.400754 2.036236 -6.316931 119 134 156
-1.845575 4.060969 -4.851505 143 160 182
0.602326 2.328579 -3.406658 75 88 103
0.228610 2.037941 -6.313997 98 114 133
-1.961051 4.072715 -4.853293 118 135 158
0.070544 2.053638 -6.306571 121 134 154
-1.213712 3.782015 -5.067862 156 174 197
-1.224344 2.189477 -6.212256 144 163 184
1.341579 3.020626 -5.599076 112 124 145
0.359683 2.070453 -3.544839 84 97 116
-1.282063 2.156299 -6.191858 135 152 173
-0.511718 3.507068 -5.224509 124 142 163
1.126215 2.630734 -3.070543 36 36 51
1.595985 2.856466 -5.620692 28 35 44
0.672050 2.329555 -3.401465 75 88 106
-0.622468 2.050918 -6.293305 104 122 143
-2.038514 3.958402 -4.945142 120 139 161
1.044677 2.532431 -3.180674 68 83 98
-0.627151 2.051246 -6.303780 105 122 144
-2.057419 3.963951 -4.946376 151 170 192
0.759144 2.216307 -3.424373 72 87 102
-0.617482 2.064873 -6.312082 128 146 167
1.553379 2.858653 -5.679611 0 1 16
1.641403 2.885581 -5.729749 98 103 116
-0.676408 2.040092 -6.308116 136 153 176
-2.039536 3.909684 -4.982284 157 176 199
0.048462 2.103533 -2.395029 211 204 200
1.552508 2.842792 -5.695052 25 34 47
0.599980 2.659077 -2.956688 2 0 3
-1.566854 2.141004 -6.257150 120 137 162
-1.991389 3.861959 -5.005497 151 170 192
0.501456 2.301223 -3.426074 48 48 63
-1.513479 2.118356 -6.261548 96 114 139
-1.673440 3.743695 -5.083050 118 137 161
1.097403 2.609213 -3.084004 71 83 97
-0.562459 1.994691 -6.325233 139 154 175
-0.119620 3.147525 -5.517937 118 135 156
0.979696 2.348096 -3.304793 48 51 66
-1.129450 2.055365 -6.285554 111 128 148
-1.934836 3.648550 -5.158744 119 139 162
-1.166233 2.061670 -6.285197 143 162 183
-0.409824 3.195888 -5.472341 83 99 121
-2.665285 2.301069 -1.111131 0 0 0
-0.582069 1.992086 -6.327535 108 123 146
-1.943655 3.482074 -5.277347 112 131 155
-0.570213 1.989419 -6.342975 97 113 136
1.166286 2.593103 -5.912736 157 172 193
1.040522 2.549344 -3.113538 70 83 98
-1.058664 2.048760 -6.322983 107 124 147
-0.874618 3.138568 -5.510359 133 150 171
-3.028096 2.813330 -1.420315 109 109 109
-1.415050 3.253955 -5.413711 143 160 182
-0.498242 1.976922 -6.364262 128 146 165
-0.765925 3.040106 -5.579449 121 137 158
0.694640 2.564986 -3.052316 149 131 133
-0.731977 1.978456 -6.339729 137 154 177
-2.139833 3.400149 -5.342919 115 134 158
0.888279 2.670414 -3.126190 17 2 15
-1.266845 2.041537 -6.319640 186 201 223
-2.139833 3.400149 -5.342919 115 134 158
1.026553 2.646832 -3.060347 32 24 40
-1.538466 2.028222 -6.288455 142 159 183
-0.527806 2.916746 -5.672736 118 133 152
0.970517 2.578544 -3.165491 29 18 34
-1.568055 2.029567 -6.289797 113 130 155
-1.348236 3.063499 -5.562583 146 163 185
-3.801849 3.745494 -1.077305 129 129 122
-1.605590 2.055949 -6.307824 115 132 156
-1.705289 3.164627 -5.498980 107 126 149
-0.232086 2.077314 -3.331744 94 106 124
-1.559206 1.969304 -6.316314 137 154 176
-1.721816 3.168133 -5.496612 167 186 211
-3.769895 3.375947 -1.377583 128 126 122
-1.321340 1.953494 -6.356079 141 156 180
-0.887157 2.883595 -5.689813 121 137 156
0.009169 1.492387 -1.183148 0 0 0
-1.292436 1.934577 -6.354760 117 134 157
-2.132281 3.204896 -5.445215 151 170 193
-0.602898 2.096769 -3.002951 0 0 0
-0.599286 1.886909 -6.427250 116 133 156
-2.117436 3.212462 -5.456946 114 133 157
0.508066 2.368604 -2.484042 185 43 38
-1.192213 1.922072 -6.369293 140 155 178
-1.359480 3.013947 -5.616703 148 165 188
-0.267863 1.733728 -2.121859 26 25 28
-2.030193 3.196768 -5.483251 113 130 153
-0.702707 2.301522 -3.288549 22 28 39
-1.155763 1.895462 -6.386667 105 121 144
-0.814155 2.827008 -5.735557 89 105 124
-0.378951 2.112678 -3.485450 92 109 128
-1.443638 1.931891 -6.374595 114 131 156
-0.623784 1.843109 -6.439122 110 127 150
-1.130046 2.820223 -5.752036 109 128 150
-0.446069 1.596955 -0.546969 195 206 218
-1.619798 1.885740 -6.368207 111 128 151
-1.147314 2.820765 -5.751198 137 156 178
0.114781 2.475222 -3.335792 20 0 13
-1.264117 1.859859 -6.397986 112 127 150
-1.183372 1.853699 -6.410107 79 92 115
-2.091725 3.074197 -5.579163 112 129 152
-0.260920 2.141195 -0.974157 206 207 210
-1.183372 1.853699 -6.410107 79 92 115
-2.091100 3.070100 -5.576869 112 129 152
-5.718846 11.576351 0.392310 45 48 60
-0.462336 1.698654 -6.580795 145 162 184
-2.024324 3.025199 -5.589966 136 153 174
-3.834107 4.116672 -2.088977 154 133 103
-0.463590 1.665638 -6.577857 103 121 144
-1.273873 2.786175 -5.770904 140 157 180
-0.053432 2.692348 -0.766858 38 41 53
-1.163086 2.688033 -5.865574 136 153 174
0.143330 2.681423 -1.013898 1 5 20
-0.820693 1.675697 -6.585570 141 156 179
-1.037386 2.607935 -5.885396 146 161 180
-0.100597 2.121235 -3.225846 103 112 123
-0.935469 2.570029 -5.898309 59 64 81
1.185344 2.541760 -3.085268 59 60 69
-0.776850 1.646967 -6.573338 96 112 133
-1.197977 2.639674 -5.862849 136 152 173
-3.755991 3.827262 -1.719896 131 112 83
-0.833044 1.682846 -6.590875 106 122 145
-1.190327 2.707143 -5.919049 104 121 144
-0.088372 2.564020 -0.602500 9 10 22
-0.909319 1.679894 -6.591414 112 127 150
-1.191792 2.702738 -5.917368 104 121 144
-0.065075 2.598387 -0.640373 61 65 73
-0.880937 1.656920 -6.586929 138 155 178
-0.001668 2.613822 -0.661708 37 48 54
-0.795379 1.641223 -6.587597 107 122 146
-0.926556 2.588175 -5.951970 58 73 89
-1.239491 2.257809 -1.702454 174 169 160
-1.022764 1.641778 -6.574207 107 124 148
-1.597055 2.729843 -5.818504 148 165 188
-1.045054 2.346010 -1.738404 62 63 66
-0.677055 1.616771 -6.605447 150 165 188
-1.275813 2.600820 -5.903136 101 119 142
0.332137 1.719187 -3.645255 24 34 55
-0.997333 1.667883 -6.601762 109 126 149
-1.714679 2.701561 -5.807971 112 131 155
-3.714941 3.203157 -0.903732 110 97 83
-1.019373 1.658757 -6.597360 104 122 145
-1.717130 2.717296 -5.818223 112 131 155
-3.640175 3.340981 -1.080024 56 48 45
-0.954947 1.625080 -6.586836 141 158 180
-0.968581 2.498404 -5.977211 107 122 146
-0.354793 1.449081 -0.554700 163 168 173
-0.951576 1.645508 -6.605156 110 127 150
-1.712076 2.715011 -5.841709 120 139 163
-0.371782 1.421232 -0.588270 162 167 172
-0.788750 1.617848 -6.617757 142 159 181
-1.355060 2.592226 -5.895919 135 152 175
0.047538 2.718047 -1.141682 13 19 32
-0.729458 1.621022 -6.631312 115 131 154
0.748039 2.036424 -6.331986 121 135 152
0.136197 2.717817 -1.116939 0 3 22
-0.982624 1.609203 -6.593089 135 152 175
-1.335098 2.580794 -5.913363 136 153 174
0.140414 2.706757 -1.126420 109 119 134
-0.690146 1.569762 -6.616972 128 146 168
-0.665430 2.403001 -6.046295 103 121 144
-0.695596 2.276491 -3.294523 19 23 35
0.676085 1.469851 -6.737029 87 98 121
-1.776704 2.686164 -5.829793 143 162 183
-0.734930 2.212801 -3.325186 36 36 46
-0.704834 1.560240 -6.619846 140 157 180
-1.776997 2.686339 -5.830048 143 162 183
-0.384952 1.472348 -0.567384 204 208 217
-1.033342 1.590994 -6.602861 109 126 149
0.386578 2.088387 -6.276664 130 146 165
-0.025042 2.631083 -0.674322 113 122 134
-1.031341 1.578937 -6.595891 109 126 149
-1.170807 2.483940 -5.972477 147 164 187
-0.449584 1.613907 -1.068930 224 219 218
-1.040354 1.579044 -6.598108 130 148 170
-0.994493 2.432101 -6.018877 150 167 192
0.035294 2.638987 -0.843278 34 41 50
-0.578183 2.307733 -6.099487 100 118 142
0.086275 2.638403 -0.837988 32 38 50
0.681372 1.416952 -6.737427 94 105 128
0.473739 2.045491 -6.336423 124 137 159
-3.863594 4.575181 -2.719006 142 130 113
-1.035988 1.578647 -6.612060 112 129 152
-1.475489 2.537000 -5.935495 112 127 147
-0.045115 1.791182 -1.128928 160 158 151
-1.457877 2.534452 -5.939655 140 155 174
-0.430985 1.551079 -6.712158 131 147 169
-1.547852 2.538027 -5.944613 108 125 150
0.318045 2.745768 -1.338081 1 2 14
-1.054295 1.533245 -6.625606 107 124 148
-1.567478 2.524736 -5.943245 110 127 150
-0.031276 2.108585 -6.254442 102 120 145
-0.641847 2.133934 -3.366822 41 40 49
-0.475619 1.493046 -6.690571 132 147 170
-0.045131 2.113217 -6.262719 128 146 170
-0.758658 1.862111 -3.381803 63 68 79
-1.045629 1.481735 -6.611249 119 136 159
-1.116419 2.384255 -6.047788 116 133 156
-0.115652 2.221292 -3.312532 93 102 116
-0.857351 1.506190 -6.659283 141 158 180
-1.589341 2.516692 -5.961580 144 161 185
-0.651984 1.640771 -3.565563 51 60 72
-0.330832 1.469732 -6.734455 110 125 147
-1.108098 2.364752 -6.067019 111 130 152
-0.287086 2.112801 -3.492057 41 50 63
-0.330832 1.469732 -6.734455 110 125 147
-1.108016 2.364163 -6.067029 111 130 152
0.912018 2.964379 -2.984607 77 86 96
-1.047256 1.501410 -6.675964 142 159 183
-0.407951 1.455767 -6.731235 134 149 172
-1.111771 2.379678 -6.100079 137 156 178
1.018867 2.955725 -2.963989 17 21 33
-1.019705 1.479126 -6.667372 138 155 178
-1.116000 2.334481 -6.101480 136 155 177
-1.373538 1.461474 -6.625089 130 148 170
-1.391852 2.316262 -5.996895 156 173 195
0.056852 2.111699 -3.535611 39 49 66
-0.360597 1.422723 -6.734503 132 147 168
-1.097527 2.293353 -6.120871 111 128 153
0.817774 2.493956 -3.269386 2 2 23
-0.360200 1.414571 -6.728663 132 147 168
-1.097472 2.286121 -6.115663 111 128 153
0.459624 2.189643 -3.485184 23 32 50
-0.350082 1.407239 -6.749837 108 123 145
0.689709 1.823058 -6.509295 145 159 181
0.906698 2.517941 -3.241566 19 23 38
0.767138 1.313055 -6.845720 133 150 176
2.807708 3.242980 -0.555064 206 210 215
1.077188 2.602041 -3.090607 20 25 42
-1.025862 1.408179 -6.712295 153 170 194
2.772331 3.367206 -0.514790 212 215 221
0.795316 2.296679 -3.347536 25 31 48
-1.203136 1.432304 -6.704943 104 121 145
2.713514 3.600969 -0.449869 198 202 207
-3.620377 3.203945 -0.840535 3 0 10
-0.326088 1.373107 -6.781376 131 148 171
2.727907 3.570856 -0.468716 169 172 178
-0.375680 1.451198 -0.567743 165 165 168
-0.707517 1.392842 -6.746463 112 129 154
2.649124 3.915111 -0.337632 197 201 206
-0.079051 2.607275 -0.663293 39 45 54
-0.835366 1.395285 -6.735816 107 124 148
2.634577 3.963959 -0.322746 189 192 198
-1.136334 2.387520 -1.870230 134 138 144
2.700770 3.694192 -0.465924 135 139 145
-0.737066 1.921473 -3.412444 38 43 58
-0.282273 1.343463 -6.793021 133 148 171
2.700617 3.693769 -0.465916 135 139 145
-0.083950 2.432536 -3.113529 121 55 65
-0.281323 1.323771 -6.780110 133 148 171
2.724171 3.592420 -0.508580 147 150 156
-0.353791 1.585811 -3.635285 43 52 67
2.725674 3.597330 -0.508971 147 150 156
0.807073 2.768674 -3.123449 3 0 5
2.841601 2.858154 -0.292545 155 156 161
2.757004 3.498411 -0.610616 158 162 167
2.709735 3.500495 -0.029777 164 167 173
2.689125 3.891995 -0.492808 184 188 193
2.256952 5.252429 0.770255 191 192 195
2.666419 3.844987 -0.505860 184 188 193
0.941358 2.233112 -3.354432 28 37 53
2.097644 5.929182 1.066379 168 169 174
2.752985 3.545212 -0.649740 207 211 218
-0.427439 1.495286 -0.582040 200 208 216
2.108692 5.878549 1.043713 199 201 208
2.833491 3.198765 -0.801213 201 205 212
0.270311 2.729048 -1.294154 109 118 129
1.791251 7.187133 1.647402 203 206 211
2.688505 3.842187 -0.615274 126 130 136
0.639791 3.400184 -2.625373 48 46 61
2.333121 5.026555 0.613374 165 165 168
2.744163 3.626153 -0.755474 142 146 153
-0.490169 2.019350 -3.501937 41 48 58
1.808270 7.185682 1.609573 205 208 212
2.288475 5.166201 0.671721 192 193 196
2.847830 3.190590 -0.954432 198 202 209
-0.347528 1.509926 -3.801525 41 54 70
2.529283 4.231384 0.225991 183 184 187
2.729105 3.710085 -0.782849 192 195 203
-0.347528 1.509926 -3.801525 41 54 70
2.576085 4.069892 0.150989 186 187 190
2.718326 3.783409 -0.768162 191 196 204
2.115808 5.937582 1.000135 204 208 212
1.176964 2.573860 -0.914734 46 49 61
-6.027661 12.257246 0.270104 94 99 112
2.197712 5.551965 0.731040 214 218 221
2.869852 2.796869 -0.514001 206 210 214
2.745877 3.660614 -0.878490 205 209 216
-0.283325 1.516882 -3.824642 41 51 71
1.925714 6.733655 1.233683 204 207 213
2.747730 3.661744 -0.879082 205 209 216
-0.711143 2.343408 -3.016922 39 25 39
2.078904 6.130527 0.954077 207 210 216
2.854920 3.206883 -1.105771 161 164 172
-0.648171 2.523344 -3.201223 96 110 127
2.428349 4.604831 0.269331 201 202 205
2.760368 3.605130 -0.994671 128 132 140
-0.409647 2.429057 -3.004763 213 121 126
2.431870 4.620907 0.277326 201 202 205
2.837139 3.307545 -1.107504 136 140 148
-1.062971 2.479830 -3.625477 3 2 12
2.836696 3.306662 -1.107692 136 140 148
-0.683838 2.314950 -3.300033 92 107 127
2.094808 5.966431 0.839750 206 210 215
2.810423 3.122988 -0.413285 157 158 163
2.161855 5.771077 0.698122 137 141 147
2.866155 3.230677 -1.225175 203 207 214
-0.174258 2.092141 -3.526039 45 53 70
1.996191 6.460825 0.990993 171 175 180
2.002798 6.532598 0.928944 177 180 186
2.680325 4.090221 -0.970785 153 159 166
2.115506 5.993977 0.656566 200 203 209
2.770095 3.623606 -1.111804 136 140 148
0.984105 2.879581 -2.917318 73 84 96
2.818257 3.150304 -0.598958 200 201 206
2.692140 4.047098 -1.023655 146 152 159
0.985114 2.873118 -2.911842 73 84 96
2.900582 2.818743 -0.790827 201 204 210
0.765078 2.628794 -1.122808 179 186 199
2.451320 4.702859 -0.023798 146 151 157
2.735833 3.829750 -1.159315 194 200 207
0.672607 2.327455 -3.398518 72 85 103
2.894567 2.915223 -0.762339 205 209 215
2.285594 5.282054 0.199819 193 194 198
2.782477 3.713678 -1.275846 143 147 158
0.877737 2.335686 -3.327830 70 83 94
2.174820 5.794944 0.342421 159 164 170
2.667447 4.275933 -1.207030 185 191 198
0.090958 2.701626 -1.098229 107 119 136
2.515451 4.495270 -0.180505 186 190 195
2.380612 5.008856 -0.056322 173 177 182
2.584326 4.658307 -1.170857 179 184 194
-0.718133 2.088805 -2.862091 43 48 56
2.779043 3.534656 -0.727837 202 205 212
0.614458 2.657667 -1.267920 1 10 19
-0.303489 2.057599 -3.251172 42 50 61
0.502359 3.603857 -0.627832 8 14 27
2.822187 3.568727 -1.554496 205 210 220
0.118199 2.394669 -3.069118 2 2 2
2.264261 5.498534 0.007014 196 202 209
2.829383 3.609366 -1.570313 161 165 176
-0.156485 2.158027 -3.329415 31 37 43
2.152661 5.975749 0.150440 189 196 205
2.820966 3.667756 -1.659373 148 152 163
0.829204 2.622922 -3.179015 74 87 98
2.859338 3.036745 -0.963748 211 214 220
-0.622405 2.505246 -1.253221 98 107 114
0.218237 2.052876 -3.578032 91 103 121
2.287251 5.483099 -0.130453 192 197 204
2.701213 4.243321 -1.590194 180 185 195
1.082616 2.696115 -3.006932 68 83 95
2.534545 4.519463 -0.527383 203 206 213
2.700999 4.243283 -1.590704 180 185 195
1.029215 2.615519 -3.098446 73 82 92
2.649452 4.161360 -0.658258 181 185 192
-0.750830 2.498849 -1.271497 96 105 112
0.071244 1.642086 -3.764266 89 101 116
2.163887 5.978932 -0.033723 186 191 197
2.687230 4.313434 -1.582897 197 202 212
0.100345 1.602208 -3.688912 89 101 116
2.633345 4.146624 -0.714054 149 156 162
2.711449 4.190597 -1.637667 192 197 207
0.695013 2.198616 -3.411967 75 88 103
2.914157 2.907917 -1.153719 205 208 216
2.743941 3.989676 -1.692129 182 187 197
0.914855 2.338599 -3.317096 41 47 61
2.743906 3.989616 -1.692135 182 187 197
-3.790885 3.322490 -1.124671 152 152 147
2.920064 2.949046 -1.260851 207 211 218
2.916852 2.966396 -1.296710 209 212 220
2.689620 4.313683 -1.768948 201 205 215
-0.377024 2.370335 -3.037367 209 168 174
2.921901 2.977183 -1.346876 114 117 125
-0.803168 4.239836 -1.141935 101 106 117
0.705877 2.348932 -2.372120 232 71 60
2.580940 4.967993 -1.737255 200 207 216
0.976052 2.936025 -2.889913 73 86 99
2.395693 5.283273 -0.610939 160 166 171
-0.959355 2.331346 -1.464672 104 112 125
0.138825 2.095753 -3.555113 88 105 121
2.531381 4.740156 -0.895123 187 192 200
2.859447 3.704067 -2.084159 190 195 204
0.350833 3.245358 -2.467479 81 72 80
0.731792 2.664949 -1.412371 16 22 34
0.915331 2.618873 -1.455765 197 204 217
2.718235 4.378338 -1.978190 207 212 222
-0.679351 1.851015 -3.550375 40 41 51
2.665016 4.194638 -1.103048 126 131 139
2.790314 4.018174 -2.065075 192 197 207
2.657811 4.721572 -1.942315 164 168 179
1.011009 2.717273 -2.979421 74 87 100
2.231106 6.008131 -0.543616 143 147 154
2.810384 3.985606 -2.092825 188 194 201
1.055545 2.741961 -2.982698 36 36 51
2.224186 6.100832 -0.570881 194 200 207
-0.843424 2.456942 -1.566337 41 48 56
0.935746 2.389067 -3.292958 74 84 103
2.224334 6.102251 -0.571304 194 200 207
2.838796 3.803390 -2.129666 164 170 178
2.937814 3.019702 -1.514652 130 134 142
2.720794 4.372357 -2.052595 195 200 210
0.987046 2.879220 -2.980776 33 25 43
2.949582 3.022367 -1.527870 212 215 223
2.697999 4.519567 -2.034984 188 192 203
0.111560 1.832589 -3.665883 59 64 82
2.950039 3.023387 -1.527058 212 215 223
-1.337750 5.473063 -0.588910 41 46 52
2.728487 4.297230 -2.086629 205 210 220
0.436322 2.392568 -2.365870 179 15 14
2.356403 5.474772 -0.799971 189 196 204
-0.891679 2.447374 -1.590140 104 113 126
0.011738 2.317372 -2.921967 220 99 99
2.929067 3.085160 -1.563676 207 212 221
2.808552 3.528854 -1.436012 208 216 223
2.739303 4.301235 -2.119201 211 215 225
0.870469 2.547853 -2.403047 164 151 149
2.467739 5.092391 -0.994577 194 200 207
1.037011 2.627145 -1.607808 37 46 63
2.636855 4.835707 -2.066057 202 206 216
2.879342 3.283068 -1.559984 98 106 116
2.636002 4.831272 -2.065926 202 206 216
-0.622970 2.090240 -3.038789 37 38 46
0.768655 2.702857 -1.585356 7 9 23
2.764204 4.226586 -2.180480 135 138 147
0.477577 2.353790 -2.456302 0 0 0
2.931316 3.080835 -1.636465 203 206 216
2.786954 4.135246 -2.199813 156 159 167
-0.195202 2.264765 -2.061177 199 204 210
-0.950576 2.452708 -1.602008 109 113 117
2.635668 4.904283 -2.110409 199 203 213
-0.291806 2.105797 -3.520980 92 108 125
2.632773 4.895502 -2.108711 199 203 213
-1.095051 2.347289 -1.833527 3 4 15
2.641246 4.440483 -1.342313 182 187 197
2.802252 4.115620 -2.234331 142 146 153
-0.692887 2.267568 -3.310678 95 108 122
-0.745847 2.548145 -1.682630 107 111 119
-3.541306 3.855573 -4.853941 114 133 159
2.656649 4.793357 -2.163365 199 204 214
2.901055 3.345361 -1.701892 201 205 215
2.696142 4.679837 -2.182505 183 188 198
0.126196 2.680562 -0.859154 104 114 128
2.386214 5.534089 -1.112866 184 188 195
2.791357 4.118151 -2.296798 195 199 206
-0.992783 2.288049 -1.631207 42 41 43
2.383483 5.679915 -1.200200 158 162 169
2.636246 4.963072 -2.246894 200 207 216
-3.889137 4.296479 -1.687428 98 90 82
2.954583 3.182759 -1.875675 169 174 184
2.602518 5.171000 -2.281081 199 206 215
-3.879705 4.487617 -2.602570 143 122 97
2.654786 4.431750 -1.576025 135 141 149
2.777825 4.251098 -2.426175 209 213 220
-1.079376 2.200755 -1.403752 56 54 55
1.944752 7.796055 -0.783907 203 211 222
1.893434 7.904451 -0.757645 201 209 221
2.901108 3.736214 -2.583867 200 204 214
0.009663 2.707697 -1.191710 112 121 137
2.848254 4.010594 -2.597651 199 203 213
-3.512702 3.601120 -3.363350 102 101 107
2.937571 3.185745 -1.953797 155 160 170
-0.327146 1.735561 -2.059644 30 23 20
-0.315822 1.775657 -2.177850 194 112 105
1.726504 8.572681 -0.750904 168 173 185
2.962279 3.213483 -2.043880 198 203 213
2.875909 3.935477 -2.656560 189 193 204
1.051412 2.469420 -3.229350 40 43 58
1.845300 8.637416 -0.853190 198 203 215
0.152891 1.866954 -2.204235 3 2 9
0.058996 2.696407 -1.016186 0 9 26
2.007832 7.752994 -1.068248 169 177 188
0.152774 1.866315 -2.204275 3 2 9
-1.021881 2.325920 -1.747561 65 66 69
0.141898 1.894672 -2.230346 215 212 215
0.394887 2.785336 -1.509103 1 1 8
2.905669 3.395254 -2.056460 196 200 210
0.141380 1.900146 -2.231136 215 212 215
0.325876 3.408233 -2.591512 156 71 77
1.806960 8.536284 -0.969914 158 164 174
0.038362 1.876668 -2.253572 205 203 206
-0.431800 2.426988 -3.066260 95 100 117
2.430772 5.787221 -1.589514 194 199 209
0.038404 1.878503 -2.254197 205 203 206
0.932481 3.067614 -2.920568 20 24 39
2.888961 3.550961 -2.073763 204 209 219
2.865247 4.045719 -2.879177 210 213 223
0.030278 2.160733 -3.487824 23 28 46
2.890278 3.556226 -2.073207 204 209 219
-0.530632 2.376680 -2.269754 133 110 109
0.740581 2.201593 -3.432897 28 31 50
2.931603 3.405589 -2.116096 178 186 195
2.646615 5.267457 -2.997375 200 208 217
-24.648010 33.748325 -2.588419 166 168 162
2.391122 5.898702 -1.583973 184 192 201
2.938688 3.378623 -2.144053 161 165 172
0.796887 3.376905 -2.609121 41 40 48
-0.136087 2.500854 -3.214623 93 100 112
2.610745 4.875379 -1.852867 205 208 218
2.734597 4.814438 -3.054837 196 200 210
0.806985 3.274551 -2.832067 50 63 82
2.597172 4.940701 -1.908063 209 212 222
2.814076 4.564812 -3.278176 204 210 217
0.890971 3.283148 -2.876628 36 46 63
2.981436 3.283249 -2.426804 168 177 190
2.761672 4.865568 -3.304713 207 211 218
-0.219830 1.947160 -3.529680 48 56 72
2.988767 3.288006 -2.501182 212 219 228
1.334550 2.747104 -2.925024 61 70 83
0.222807 2.470606 -3.365075 33 33 47
2.941140 3.537798 -2.525530 136 141 151
2.837762 4.341703 -3.354409 203 206 212
1.001734 3.052915 -2.870355 30 39 54
2.330891 6.415584 -2.168662 134 137 147
2.841610 4.341541 -3.352288 203 206 212
0.288741 2.372661 -3.392915 31 26 41
2.988830 3.331242 -2.666457 214 222 231
2.859046 4.350177 -3.406516 199 203 208
-0.329406 1.617122 -3.667353 45 50 62
2.917301 3.752524 -2.616621 206 211 221
2.901006 4.113201 -3.427161 201 205 212
0.238013 2.253174 -3.454869 22 28 42
2.923307 3.690749 -2.644408 197 202 212
2.766749 4.739340 -3.474790 211 214 222
0.744458 2.613760 -3.188008 38 40 50
3.004239 3.312182 -2.753978 204 208 218
2.829493 4.536143 -3.603381 201 205 210
0.322124 2.161747 -3.501714 26 34 50
2.972707 3.530042 -2.735343 201 206 218
2.809142 4.599851 -3.633520 204 207 213
0.396598 2.104277 -3.493128 30 35 54
2.973307 3.528911 -2.735611 201 206 218
2.858960 4.327265 -3.634934 207 211 214
0.516975 2.140869 -3.493441 66 69 87
3.007821 3.403781 -2.820724 213 217 227
2.623983 5.125750 -3.669704 105 123 140
1.158106 2.595546 -3.071318 69 67 80
2.443099 6.135858 -2.526938 205 210 220
0.970652 1.494270 -3.037706 31 33 39
0.469649 1.997160 -3.560580 68 76 93
2.740621 4.634171 -2.712495 167 172 182
2.800609 4.635695 -3.736049 214 218 225
0.563244 2.028867 -3.480332 29 35 53
3.017798 3.386506 -2.869145 138 143 153
2.910844 4.126511 -3.803720 215 216 223
0.555360 2.003774 -3.587428 30 40 58
0.933363 3.219309 -2.726550 122 123 130
2.886315 4.287119 -3.916525 168 169 175
1.013595 3.070622 -2.771016 123 125 135
-0.857688 2.861912 -2.833255 17 13 21
2.930361 3.737317 -2.873884 191 195 205
-0.454168 2.538126 -3.172670 35 3 22
0.092308 2.463087 -1.230763 107 120 134
2.984329 3.607281 -2.933857 214 218 230
-0.998723 2.581922 -3.156335 44 39 41
-0.316839 1.698740 -2.083498 103 115 123
-0.545407 2.214437 -2.803137 56 5 8
-0.616552 1.934022 -3.513604 15 20 29
0.692553 3.464774 -2.693725 68 72 88
0.974719 2.991320 -2.838617 10 11 18
-0.657552 1.936158 -3.506759 63 47 59
0.877915 2.592222 -2.361488 30 40 53
2.920311 3.838140 -2.935510 171 176 186
1.446783 2.840641 -4.698895 99 104 113
-0.052516 2.389233 -3.410130 4 0 6
3.022577 3.404585 -3.020678 158 163 175
-0.168347 2.087094 -3.534085 23 30 47
3.024021 3.435929 -3.038199 113 120 129
0.976999 2.872311 -2.918742 118 120 126
-0.320657 3.272100 -5.418489 84 100 121
0.304657 2.216384 -3.378644 44 48 62
2.953531 3.608101 -3.045939 204 209 219
-0.728328 1.770652 -2.908267 72 67 66
2.788679 4.535402 -3.041837 123 129 137
2.957224 3.706119 -3.127638 203 208 218
-1.961858 3.477398 -5.272924 153 172 195
1.188702 2.478512 -3.119669 67 70 86
-0.653162 3.021250 -2.913064 60 58 64
-0.854486 3.194837 -5.520414 126 144 165
1.319125 2.704676 -3.162674 6 5 12
-0.777904 2.864082 -2.940540 128 130 134
0.883081 2.661685 -5.853821 118 130 150
-1.521760 2.632641 -2.472231 71 87 106
3.037525 3.471779 -3.217525 198 202 212
-1.885072 3.381279 -5.353910 121 141 165
-0.699333 2.026652 -3.133309 40 40 50
0.889289 2.687495 -3.100734 26 27 35
-0.909080 3.054093 -5.569362 93 109 128
-0.216458 2.087700 -3.551060 47 55 70
1.142903 2.463057 -3.134549 6 7 14
-0.910462 3.061373 -5.576830 93 109 128
-0.263625 1.543416 -3.792113 62 71 91
-0.827561 2.741101 -2.990801 137 140 146
-1.476476 3.166229 -5.488962 115 132 155
-0.200710 1.506731 -3.800455 36 49 68
-0.695515 2.741196 -3.040041 130 133 140
-0.439716 2.841809 -5.755329 125 141 164
0.146341 1.714581 -3.727367 98 106 124
0.373594 2.645272 -3.129401 121 76 83
-1.432442 3.060945 -5.566194 119 138 162
-0.892923 2.548737 -5.857908 92 97 108
-0.804402 2.596794 -3.045263 125 133 142
1.060634 2.442872 -3.202196 7 8 17
-0.674575 2.657182 -3.075543 124 132 137
-1.011462 2.636313 -5.872667 91 107 120
-0.797305 2.251243 -3.376605 34 39 46
0.253447 2.735912 -3.158579 134 112 117
-0.933294 2.556728 -5.867210 51 56 72
-0.290517 2.172669 -3.437227 94 112 128
0.843547 2.555079 -3.220070 4 6 16
-1.180239 2.636570 -5.867774 105 121 144
0.442453 2.418875 -2.908600 207 143 150
0.634077 2.376339 -3.214215 172 173 176
-1.238479 2.610821 -5.881871 97 113 134
-0.283325 1.516882 -3.824642 41 51 71
3.027603 3.554268 -3.427228 203 205 215
-0.712801 2.419019 -6.035315 138 157 180
-0.573347 2.537654 -3.198572 95 109 126
0.063759 2.702452 -3.208469 123 123 127
-1.398534 2.583281 -5.938607 106 121 143
-0.753176 2.293457 -3.291793 92 108 126
-0.740131 4.990810 -3.131289 131 132 139
0.685148 1.936458 -6.388127 120 133 153
-0.777122 1.986243 -3.457311 91 108 121
-1.532765 2.534851 -5.951031 148 165 189
-0.777122 1.986243 -3.457311 91 108 121
0.638663 2.400086 -3.354268 8 14 28
-0.278246 2.188881 -6.203763 129 147 169
-0.506393 2.148602 -3.422405 94 108 122
2.856845 4.247579 -3.520475 215 221 228
-0.290260 2.176479 -6.208655 100 118 141
-0.689838 1.899529 -3.527617 93 107 124
-0.531518 2.438582 -3.264799 57 24 38
0.236169 1.991376 -6.345662 122 137 157
-0.671261 1.803314 -3.574206 98 111 131
0.738190 2.338922 -3.369379 3 5 16
-1.715434 2.485288 -5.960001 113 130 153
-0.237189 2.056645 -3.253511 41 50 61
0.330716 2.398057 -3.379264 36 5 16
0.675339 1.828260 -6.503262 96 107 127
-0.364884 2.089980 -3.528290 94 109 126
-0.085233 2.451249 -3.351315 1 1 10
2.640790 3.931443 -0.309693 157 161 167
0.075024 2.471158 -3.358987 85 99 114
-0.231237 2.304693 -3.354177 176 179 185
2.671256 3.797386 -0.411430 204 207 213
0.873329 2.945741 -2.731339 34 43 56
2.774533 3.354800 -0.608416 196 200 206
0.140041 2.499952 -3.363659 84 99 114
0.412804 2.363714 -3.411604 117 118 124
-0.057503 2.106720 -0.641329 41 46 52
0.181801 2.498023 -3.342080 30 10 28
1.166712 1.930322 -3.475079 36 33 43
2.691444 3.749135 -0.521804 194 198 203
0.967580 2.973752 -2.842900 74 84 98
0.539790 2.292012 -3.430856 37 42 48
2.620835 4.074652 -0.420455 184 187 193
0.686735 2.257090 -3.450216 118 121 127
2.671242 3.889988 -0.576133 194 198 204
0.085814 2.024617 -3.555664 90 103 123
0.460828 2.325739 -3.433361 111 116 123
2.670305 3.885671 -0.577148 194 198 204
0.943247 2.737336 -3.088097 77 90 103
0.229465 2.386479 -3.428637 122 122 131
2.805872 3.362403 -0.901085 193 196 204
0.165327 1.998060 -3.547415 86 100 118
-0.737842 2.115691 -3.363684 137 137 145
0.570628 2.621144 -0.826953 198 204 219
0.163202 2.002079 -3.552792 86 100 118
-0.277736 2.315821 -3.407485 2 4 11
2.772520 3.535000 -0.956947 192 195 203
1.017249 2.689401 -3.032969 72 85 98
-0.295388 2.307141 -3.414650 15 16 27
-0.799416 2.024205 -3.393169 3 3 13
2.735627 3.754992 -0.940268 188 191 199
1.024195 2.655558 -3.136225 73 83 93
-0.475708 2.272787 -3.423587 120 128 134
2.772450 3.572606 -1.012263 200 204 212
1.125988 2.644799 -3.017512 32 36 48
3.017483 3.745775 -3.744148 177 183 190
2.802529 3.521372 -1.100201 197 200 208
0.744628 2.325218 -3.359829 72 87 100
0.115467 2.236857 -3.478844 27 5 13
2.855408 3.282666 -1.201610 196 200 207
3.020201 3.696812 -3.747084 213 219 226
2.776672 3.755942 -1.262022 179 184 192
0.807779 2.342088 -3.373710 73 86 104
0.936197 1.904655 -3.554047 109 115 122
0.541404 2.674780 -1.184247 190 193 203
1.143808 2.515047 -3.144506 40 43 57
3.043752 3.605492 -3.764008 210 212 222
0.540406 2.673440 -1.185409 190 193 203
0.830508 2.214711 -3.380194 71 84 99
-0.316393 2.228129 -3.468326 119 124 134
2.847690 3.448172 -1.467525 192 197 207
1.129364 2.421850 -3.198786 74 83 97
2.989121 3.882780 -3.799214 167 173 181
-0.521846 2.527100 -1.099539 98 103 114
0.891570 2.239281 -3.407225 69 84 102
0.981703 1.871399 -3.589557 114 119 122
-0.435376 2.106614 -3.486286 85 83 93
0.650507 2.687976 -1.296283 15 19 32
0.079848 2.623910 -0.759328 107 120 136
3.039685 3.639199 -3.828715 210 214 221
2.671094 4.332538 -1.430014 187 192 200
0.155657 2.702120 -1.031171 102 116 130
-0.437324 2.024694 -3.532390 117 126 136
-0.107415 2.034842 -3.570266 47 24 33
2.698800 4.227415 -1.546951 193 198 208
0.036778 2.708867 -1.265053 105 119 136
3.032038 3.674905 -3.895985 213 218 228
1.225978 2.583065 -1.628702 1 1 18
0.036778 2.708867 -1.265053 105 119 136
1.271876 2.636235 -1.671301 57 62 68
0.292913 2.412002 -1.263729 6 5 17
-0.634070 1.761463 -3.574751 65 48 58
2.803600 3.869138 -1.797830 193 198 208
0.620321 3.464613 -2.690314 51 51 66
0.845589 1.695237 -3.720723 39 40 44
2.873136 3.570904 -2.001248 154 158 165
-0.017739 2.386787 -3.086603 2 2 0
3.054067 3.761532 -4.366633 221 229 239
-0.724148 1.534571 -3.979315 123 131 143
2.879657 3.559046 -2.047351 153 157 164
0.945184 2.616047 -2.619012 148 138 141
0.517846 4.134333 -4.825924 108 122 134
2.585803 4.982824 -1.783080 202 206 216
1.100394 2.814809 -2.893535 33 36 49
0.160892 4.165717 -4.804659 143 156 173
2.767151 4.050044 -1.961485 195 199 209
1.101768 2.774038 -2.912287 37 37 52
-0.798167 4.206464 -4.777762 127 143 161
2.638811 4.793397 -1.982065 192 197 207
0.985690 2.683493 -3.024413 30 19 38
-0.617298 4.138776 -4.791567 99 115 134
2.640279 4.794671 -1.982062 192 197 207
0.231301 2.024787 -3.538835 86 98 116
2.955727 3.696064 -5.117490 98 114 133
2.777336 4.111331 -2.099329 124 130 138
0.735962 2.261051 -3.102896 19 28 40
2.869654 3.633928 -5.152843 114 125 140
2.614648 4.888124 -2.017646 198 203 213
1.082468 2.697104 -3.007982 70 83 96
1.187256 2.716060 -4.828368 48 58 72
2.775973 4.139405 -2.161745 203 209 216
1.001285 2.592216 -3.086076 29 20 39
-0.881349 2.542154 -4.874437 126 140 158
2.862979 3.584535 -2.256675 195 201 208
1.116237 2.686665 -3.008596 34 38 50
0.325914 3.397068 -5.378338 84 98 116
2.786498 4.085189 -2.182574 211 215 223
0.577753 2.250825 -3.500120 59 63 80
-0.480652 3.404416 -5.363800 98 114 135
-0.695721 3.291955 -5.384822 132 148 168
2.758073 4.315507 -2.348841 196 200 207
0.976665 2.927169 -2.881781 77 92 107
0.769573 2.813917 -5.787635 112 127 147
2.871440 3.841982 -2.442543 179 184 192
0.211601 2.174070 -3.434281 85 100 121
2.023652 2.568797 -5.936094 82 94 112
2.678383 4.799103 -2.376007 191 193 203
2.023888 2.570394 -5.936458 82 94 112
2.688774 4.794641 -2.516572 200 205 215
1.325589 2.679352 -3.180482 74 84 98
1.906180 2.548439 -5.943388 73 87 108
1.985877 2.530187 -5.945867 105 119 136
1.261846 3.010092 -2.361805 35 37 46
1.840189 2.542177 -5.946881 109 122 140
2.656908 4.952085 -2.595485 205 210 220
0.244526 2.748279 -1.315769 100 114 131
0.229093 2.733761 -5.850623 111 128 148
2.823373 4.248255 -2.716090 188 192 203
0.244526 2.748279 -1.315769 100 114 131
0.228697 2.685985 -5.831470 111 128 148
2.843506 4.034086 -2.733909 193 198 208
0.349473 2.561596 -1.385552 2 0 8
0.148072 1.931842 -2.253703 27 26 29
-0.371191 2.245455 -2.691143 40 17 29
1.759087 2.499742 -5.942396 118 132 152
0.148168 1.931523 -2.253688 27 26 29
-0.608989 2.626120 -3.224164 42 12 28
1.877541 2.494427 -5.991785 82 93 114
1.245981 3.179706 -2.456185 141 151 164
-0.943710 2.345121 -3.709048 2 3 15
-1.031524 2.835826 -5.800575 139 151 173
0.430470 2.318815 -2.344178 207 36 31
1.059799 2.829027 -2.919108 72 85 100
-0.652282 2.661916 -5.851744 94 108 127
0.400023 2.253183 -2.371021 201 50 48
1.084515 2.573270 -3.116771 39 37 52
-0.653026 2.663929 -5.852598 94 108 127
2.910294 3.869555 -2.922062 198 203 213
0.148387 1.673475 -3.690606 90 102 120
-1.561243 2.706128 -5.770068 146 162 186
0.437691 2.401154 -2.405407 161 106 106
-1.339167 2.594602 -5.905244 108 124 146
-0.919499 2.519939 -5.943950 107 120 140
2.701627 4.919703 -2.862100 195 200 210
0.088462 2.724675 -1.155177 15 19 34
2.879561 4.029152 -2.924116 201 203 213
0.756830 2.643191 -3.139496 3 0 2
2.925664 3.925074 -3.053049 203 205 215
0.072911 2.670479 -0.816006 33 38 47
-1.099211 2.454416 -6.022063 116 133 156
2.911850 3.898290 -3.048392 203 205 215
-0.003065 2.705788 -0.990348 30 37 43
-1.398714 2.430138 -6.009673 118 135 156
0.055928 2.225658 -2.447480 222 173 47
-1.466545 2.488154 -2.050561 165 166 164
-1.076546 2.345617 -6.058695 112 129 152
-0.005746 2.173599 -2.448112 194 11 0
0.406460 1.851939 -1.984531 2 0 10
-1.091388 2.356954 -6.064932 135 152 175
0.857804 3.382872 -2.667438 111 114 124
-1.091496 2.357071 -6.065020 135 152 175
0.805176 3.236198 -2.766282 106 111 122
-1.114257 2.368093 -6.084547 141 157 179
2.837194 4.422797 -3.281703 212 215 222
-0.654633 2.107549 -2.718200 195 203 212
-1.466143 2.350318 -6.055448 115 134 158
2.770819 4.595546 -3.330339 199 203 210
0.545238 3.142102 -2.542271 55 38 46
1.097383 3.000818 -2.911819 103 110 117
0.097250 2.344579 -3.213475 14 0 10
-0.073800 2.098430 -6.262538 97 113 136
2.875720 4.276042 -3.588436 210 214 219
0.095389 2.342135 -3.211712 14 0 10
-0.938318 2.162052 -6.209726 132 150 173
2.766395 4.784543 -3.638543 205 212 224
-0.754088 1.799109 -0.699468 186 197 207
-1.096283 2.131629 -6.216286 137 153 176
2.853675 4.432064 -3.669432 208 212 218
0.917157 2.357861 -3.329989 23 29 44
-1.120036 2.102507 -6.253545 112 129 152
0.016886 2.565102 -3.162665 138 48 51
-1.556515 2.147539 -6.222855 122 140 165
-0.425065 2.309797 -3.038388 240 138 147
-3.426446 3.517877 -2.776762 217 201 173
0.045885 2.639823 -3.220111 114 118 124
0.062547 2.657600 -0.950050 1 3 13
-1.046959 2.052079 -6.285272 104 121 145
-0.449299 2.355253 -3.073584 41 8 18
0.102522 2.708185 -0.965447 25 30 39
-1.216216 2.064225 -6.289364 118 134 155
-0.621082 1.917016 -3.525492 108 117 123
1.810216 3.380429 -4.820135 95 107 120
0.100360 2.476514 -1.243442 111 120 133
-1.182118 2.033761 -6.284639 117 132 155
1.494312 2.824689 -4.691115 75 82 94
-3.758048 3.664091 -1.210641 62 46 33
1.467984 2.824828 -4.685620 109 116 126
-1.032032 2.328988 -1.645968 41 40 43
-1.537748 2.052811 -6.277082 118 135 160
1.464225 2.816406 -4.683111 109 116 126
0.112040 2.680071 -1.019232 19 20 34
-1.610880 2.026805 -6.311834 110 127 150
1.436142 2.820837 -4.852997 96 104 115
-0.523158 1.540699 -0.749552 143 147 150
-1.637569 4.431089 -4.622266 116 133 154
-1.139958 2.252449 -1.443365 97 95 96
-1.530599 2.041268 -6.331831 103 120 146
-1.633697 4.417920 -4.615137 116 133 154
0.002023 2.687820 -1.118789 0 4 21
-1.541895 2.047279 -6.347778 116 133 157
-0.947171 3.894821 -4.981470 134 151 172
0.246626 2.637691 -4.901532 67 75 91
-1.192092 2.244659 -1.675226 104 99 101
-0.881058 1.966412 -6.417421 138 155 177
-2.032865 4.140884 -4.803185 122 142 164
0.300774 2.775495 -1.460844 105 113 124
-0.875942 1.926539 -6.397783 138 155 177
1.506453 2.902682 -5.627931 38 48 65
-1.275500 1.916129 -6.388705 142 158 182
-1.374506 3.559402 -5.195675 116 133 156
-0.456948 2.182720 -3.405804 87 106 128
-1.181131 1.878125 -6.414620 138 153 174
-0.563041 3.159795 -5.496035 137 156 180
0.914713 3.185159 -2.878679 31 40 53
-1.513554 1.953231 -6.430522 113 130 153
-1.513554 1.953231 -6.430522 113 130 153
-2.159664 3.079054 -5.559942 94 112 133
-0.413782 1.478743 -0.867217 205 204 207
-1.403160 1.870836 -6.409846 143 160 182
-2.158384 3.071960 -5.555461 94 112 133
-0.390926 1.572004 -1.073498 219 214 211
-1.056590 1.813167 -6.439917 134 149 172
-0.613287 2.539883 -5.944220 125 141 165
-1.044759 1.808994 -6.444746 108 123 145
-0.890601 2.560863 -5.903706 53 62 76
0.306093 2.750005 -1.435236 2 0 15
-1.127694 1.790310 -6.453718 132 148 170
-1.252892 2.675058 -5.849149 106 121 143
0.466857 2.810446 -1.631094 6 1 14
0.675148 1.524144 -6.654480 150 165 187
-1.210613 2.623969 -5.875331 107 122 144
0.322918 3.512347 -2.630466 74 75 86
-0.844246 1.653999 -6.565799 131 148 171
-0.777093 2.431552 -6.014776 100 116 137
0.339855 3.402040 -2.577749 26 11 25
-0.799148 1.607248 -6.579963 134 149 172
-1.388781 2.593219 -5.900535 137 154 179
-0.843958 2.085135 -3.367574 66 71 87
-0.930066 1.651244 -6.595650 108 123 145
-1.003225 1.637992 -6.588576 139 156 179
-0.617173 2.355547 -6.073099 131 150 176
-0.595582 1.672560 -3.641904 18 24 37
-1.468803 2.526112 -5.868619 118 135 154
0.119059 2.240557 -3.489269 34 40 52
0.699260 1.504626 -6.742820 163 179 204
-1.456832 2.547173 -5.921345 113 128 148
-0.077460 1.974093 -3.588150 24 30 47
-0.796597 1.594900 -6.612656 96 114 137
-0.494028 2.289484 -6.126565 132 150 175
0.933593 2.785172 -3.095559 23 7 24
-0.972542 1.585240 -6.609567 135 152 175
-0.459904 2.243135 -6.143795 98 117 139
0.875301 2.741100 -3.160006 10 0 19
0.717429 1.446457 -6.746523 107 122 146
-0.328524 2.220130 -6.192968 130 149 172
0.587986 2.159067 -3.439721 47 56 73
-1.043633 1.567472 -6.609186 148 165 187
-0.764520 1.537436 -6.643789 138 155 176
-0.008580 2.100149 -6.264818 126 144 168
-0.782613 1.528938 -6.664116 111 126 149
-0.008500 2.102942 -6.267174 126 144 168
-0.321651 1.597119 -0.533569 190 197 210
-0.082092 2.121683 -6.251394 121 139 162
-1.061008 1.514071 -6.628342 145 162 184
-1.407245 2.403938 -6.005314 144 161 183
-0.327105 1.472086 -6.714684 102 118 139
-0.326083 1.462845 -6.709090 102 118 139
2.684443 3.825414 -0.464399 210 214 219
1.054461 2.669051 -3.071995 23 19 35
-0.315806 1.466760 -6.712613 128 144 166
2.769245 3.484577 -0.780788 171 177 184
-1.192719 2.267126 -1.696724 44 42 48
-1.229140 1.504369 -6.650587 140 157 180
2.854960 3.205111 -0.969104 203 207 214
-0.418023 1.453946 -6.726810 108 123 147
2.823960 3.295380 -0.972552 147 151 159
-0.617352 2.046711 -2.800249 38 39 47
-1.408374 1.492437 -6.623164 142 159 183
2.683352 4.024604 -0.896954 188 193 201
-0.910230 2.269466 -3.353587 55 61 74
-1.241681 1.503014 -6.655392 106 123 147
2.822990 3.370540 -1.159768 189 193 200
0.397032 2.155540 -2.288913 172 50 46
-1.242007 1.495641 -6.651285 106 123 147
2.713959 3.960777 -1.101576 175 180 188
-1.251278 1.490580 -6.647789 138 155 178
2.732119 3.889264 -1.187997 164 169 177
0.374591 2.576228 -1.432546 2 2 9
-1.013652 1.465044 -6.675802 104 121 145
2.624475 4.338333 -1.114854 177 182 190
-1.152784 1.535880 -6.709308 145 164 187
2.832354 3.505440 -1.384377 176 181 191
-0.820927 2.351658 -3.198174 92 110 126
-0.340014 1.414299 -6.751299 127 143 164
2.838457 3.498799 -1.545955 202 207 217
-0.340078 1.414709 -6.751728 127 143 164
-0.300261 1.397884 -6.748567 142 157 179
1.248713 2.576652 -1.526721 47 52 64
-1.518526 1.505599 -6.666101 106 123 148
2.846137 3.558853 -1.664799 212 217 227
-0.016484 2.153622 -3.534143 88 102 120
0.616484 1.323937 -6.836858 121 137 158
-0.576205 2.534394 -1.277076 100 106 115
0.593203 1.311299 -6.845771 123 136 158
2.609946 4.770385 -1.719550 201 206 216
0.926775 2.446515 -3.276354 71 81 95
-1.114506 1.439555 -6.699424 143 158 181
2.616286 4.803693 -1.816023 200 204 214
-0.328879 1.617312 -0.522033 87 96 114
-0.309409 1.385146 -6.774920 132 148 170
2.679918 4.504014 -1.973046 188 192 203
-1.298962 1.432047 -6.681949 139 156 180
2.826239 3.857566 -2.160366 173 178 186
0.180650 2.509211 -1.276656 1 7 25
-1.189246 1.423916 -6.693646 144 161 183
2.770078 4.323313 -2.410129 194 198 205
0.316389 2.759444 -1.367229 97 111 123
-1.014352 1.416374 -6.716964 109 126 151
2.819366 4.072752 -2.464635 199 203 213
0.398330 2.780614 -1.530109 95 109 121
-1.306296 1.429805 -6.700920 145 162 186
2.721862 4.589013 -2.468452 192 194 204
0.398330 2.780614 -1.530109 95 109 121
-1.020363 1.409528 -6.726831 143 160 184
-0.318690 1.798848 -2.074424 11 9 6
0.398588 2.814264 -1.607634 95 109 121
-0.622848 1.363529 -6.761147 137 152 175
0.843679 2.426386 -2.327073 197 190 196
0.472855 2.791610 -1.595092 98 107 122
2.740727 3.309906 -0.108104 205 209 214
2.792535 4.325361 -2.686086 182 187 197
0.472855 2.791610 -1.595092 98 107 122
2.834607 2.962397 -0.315404 196 197 202
1.258380 3.000054 -2.437859 99 96 102
1.697053 7.637787 1.825460 200 203 208
2.878551 3.964765 -2.762455 197 202 212
0.367091 2.052287 -3.528977 85 97 115
2.102344 5.937335 1.033085 205 209 212
0.019958 1.845993 -2.230358 29 26 30
2.839340 2.965966 -0.350509 197 198 203
0.019944 1.845847 -2.230426 29 26 30
1.327349 3.004714 -2.497729 190 194 204
2.804672 3.150816 -0.340273 156 157 162
2.896033 3.937121 -2.830154 186 191 201
2.537309 4.239150 -0.026646 201 203 207
2.736573 4.723397 -2.994265 199 204 214
-3.779219 3.439728 -1.418470 132 132 125
2.876973 2.867861 -0.613707 202 205 211
2.826376 4.264276 -3.039461 181 185 192
2.601783 4.107966 -0.175468 193 194 199
2.709766 4.982854 -3.016470 208 212 222
0.033549 2.683196 -1.147290 101 117 136
2.369110 5.008326 -0.081531 195 199 204
0.950929 3.081593 -2.786113 106 112 118
0.361005 2.672004 -1.429472 98 112 129
2.166203 5.947221 0.185400 185 191 198
2.653732 3.972451 -0.579357 191 192 198
2.893845 4.077760 -3.370366 206 210 216
0.988537 2.533127 -1.127688 43 52 65
0.901350 2.988448 -2.874395 108 112 118
0.332266 2.380785 -3.009316 13 0 3
2.172230 6.044137 -0.034583 186 192 200
2.896449 4.136889 -3.461920 183 189 196
0.243875 2.699734 -1.142658 12 12 26
0.963405 2.727624 -3.071065 106 114 123
0.332739 2.707375 -1.296969 5 3 14
2.699249 4.861163 -3.655460 144 157 169
2.577768 4.429222 -0.682306 189 193 199
2.651622 4.672444 -3.669234 143 154 168
0.404518 2.744150 -1.465040 2 0 8
2.776380 3.557470 -1.000060 198 201 207
2.504056 4.750054 -0.700969 189 199 205
0.959222 2.577809 -3.113754 109 114 124
1.128267 2.390299 -3.175092 106 112 122
-0.887218 1.868059 -3.561270 33 37 49
0.910095 2.628878 -3.153855 111 112 121
0.587891 2.345483 -2.275568 230 61 49
2.928035 2.987466 -1.393907 124 128 136
0.910701 2.631870 -3.154509 111 112 121
-0.361874 2.063155 -3.320483 85 99 117
0.911031 2.612561 -1.419443 190 198 210
1.068100 2.403126 -3.212239 102 114 122
0.853331 2.524766 -2.817959 5 0 13
1.069202 2.621336 -1.446773 48 59 73
0.994791 2.398531 -3.228913 104 112 121
2.941129 3.027951 -1.544876 131 135 143
0.762114 2.460238 -3.229910 104 110 118
-0.253851 1.977292 -2.555024 20 11 27
2.721663 3.924889 -1.313781 149 153 161
0.762114 2.460238 -3.229910 104 110 118
1.021252 2.342868 -3.289245 107 113 119
-0.387987 2.350883 -0.999465 0 0 0
2.945630 3.071555 -1.641851 146 148 159
1.022537 2.346183 -3.290127 107 113 119
2.758377 3.944724 -1.517990 176 181 189
2.911775 4.258760 -4.008563 215 221 228
-3.772524 3.590199 -1.120078 21 10 7
2.758682 3.947199 -1.518170 176 181 189
0.710881 2.505546 -3.267953 109 113 123
-0.264548 1.974889 -3.567824 91 107 126
2.532734 4.990628 -1.379631 194 199 209
-0.488369 2.853664 -3.039767 235 146 151
-0.321098 1.514744 -3.781477 92 102 121
2.971709 3.234062 -2.208801 144 147 157
-0.518384 2.859867 -3.038939 49 12 18
-0.081390 1.822458 -1.174688 165 165 156
2.973815 3.180858 -2.220026 193 198 208
2.687188 3.924545 -3.997916 143 156 166
2.818461 4.178711 -4.070949 143 156 166
1.133952 2.605024 -2.984883 34 37 50
2.851034 3.717165 -2.332497 195 203 212
-0.551933 2.864017 -3.047032 115 122 128
0.482539 2.904259 -2.316204 181 103 119
2.852640 3.720818 -2.331906 195 203 212
-0.551933 2.864017 -3.047032 115 122 128
0.621424 2.727599 -2.946643 0 0 1
1.250939 2.848635 -2.356119 68 69 72
0.489321 2.452521 -3.287970 49 50 61
2.554120 5.294089 -2.116618 199 207 213
-0.568943 2.742089 -3.096509 50 17 33
2.557664 5.220667 -2.164607 197 204 214
-0.498995 2.775630 -3.123472 38 1 17
0.743816 1.737367 -1.025508 0 0 8
2.949778 3.503114 -2.540217 203 210 219
-0.871899 2.682563 -3.049355 117 131 141
2.488494 5.838327 -2.226959 196 203 212
-0.484423 2.691379 -3.171888 27 4 21
0.767917 3.260175 -2.784505 36 43 61
2.359473 6.400156 -2.145723 193 196 206
-0.840922 2.457965 -3.159775 120 133 146
0.707587 2.412598 -3.334946 22 25 45
1.257452 3.175890 -2.502975 70 71 80
-0.842729 2.474072 -3.160665 120 133 146
2.721460 4.590488 -2.475165 200 205 215
0.326957 2.292058 -3.449179 99 108 120
-0.920027 2.246743 -2.833898 46 33 42
2.463618 5.864792 -2.294859 205 213 222
0.568867 2.092796 -3.526561 92 100 110
-1.043121 2.528464 -3.174657 17 24 33
0.346377 3.421747 -2.610367 150 82 91
2.385504 6.270272 -2.345075 203 208 218
0.818489 1.908863 -3.597785 94 103 110
0.930109 3.258140 -2.736739 41 51 71
0.811726 3.504945 -2.563515 40 42 51
-0.252641 2.294037 -3.404296 114 122 128
0.914073 3.165531 -2.735407 25 34 55
1.064979 3.286238 -2.614542 59 60 65
-0.256490 2.292949 -3.406679 114 122 128
-0.278470 1.885799 -3.619131 26 30 42
0.433383 2.078975 -3.551729 92 100 110
-0.295312 1.592412 -3.671507 45 53 66
0.955868 2.898412 -2.890465 114 115 120
-0.595178 3.032313 -2.855735 87 47 45
0.741556 1.831094 -3.615567 93 97 106
0.969941 2.446796 -3.246509 18 20 35
0.741538 1.830464 -3.615588 93 97 106
0.897116 2.671389 -3.119570 49 45 52
-0.845885 1.608457 -3.793155 101 117 139
0.868240 2.761976 -4.754197 51 60 72
-0.638068 2.487808 -3.204138 38 18 33
0.738451 2.444866 -3.291873 114 114 121
0.863891 3.390752 -5.360712 62 76 92
-0.803602 2.120923 -3.471009 32 33 41
0.700966 2.467557 -3.295849 115 120 127
-1.678363 3.864505 -5.003310 122 140 163
-0.505883 2.057400 -3.399557 26 30 42
0.600598 2.437603 -3.322706 114 118 124
-0.888015 2.555354 -4.910997 57 65 80
-0.013985 2.523301 -3.377002 5 0 1
-0.463825 2.519279 -3.255195 47 23 36
-0.919020 3.121004 -5.604983 120 135 156
0.919929 3.266867 -2.766836 79 88 103
-1.854695 3.021169 -5.603598 148 166 188
0.693725 2.426543 -2.597772 102 56 58
0.088894 2.433080 -3.350722 129 129 134
-1.854433 3.024109 -5.605294 148 166 188
0.998683 3.054374 -2.725902 30 40 55
-0.780134 2.112202 -3.325190 131 134 143
-0.903753 2.563175 -5.933364 124 140 156
0.992286 3.088200 -2.812179 24 33 49
0.454856 2.242144 -3.454781 113 119 125
2.831288 3.110921 -0.664409 198 202 207
0.242393 2.531208 -3.455316 77 92 107
-0.384414 2.233908 -3.468576 124 130 139
2.712567 3.645774 -0.498630 183 187 192
0.325262 2.044847 -3.510716 49 59 75
0.934620 1.806795 -3.598754 110 121 128
0.596977 2.643707 -0.688943 188 192 211
1.158477 2.653066 -2.986297 62 64 75
2.767781 3.560858 -0.902909 191 195 202
-0.340830 1.983018 -3.559639 2 5 13
2.766645 3.559082 -0.902810 191 195 202
-0.552895 2.433588 -3.189047 94 107 121
-0.484601 1.944388 -3.555472 124 130 138
2.708322 3.785576 -0.853214 181 184 192
0.214038 2.586521 -3.337478 86 96 110
3.040953 3.752065 -4.062132 217 223 230
0.661520 2.609345 -0.897409 185 190 205
2.825168 3.356520 -1.211365 202 205 213
-0.878411 3.072894 -5.545435 84 97 117
0.532910 2.660685 -1.088075 183 191 204
0.729467 2.805306 -5.765508 107 119 140
-0.588890 2.528646 -0.961869 90 95 103
1.063498 2.941875 -2.774525 41 50 67
0.769172 2.806021 -5.767818 87 103 122
-0.588502 2.523757 -0.962793 90 95 103
0.041697 1.521918 -3.779086 91 102 122
1.929190 2.574378 -5.949326 112 124 145
0.677841 2.651561 -1.195394 174 181 194
-1.291647 2.766449 -5.762128 117 132 153
2.800746 3.646522 -1.333748 188 193 203
-0.478892 2.137229 -3.236255 40 45 50
-0.811729 2.458697 -5.994075 91 107 128
2.800963 3.646422 -1.333569 188 193 203
-0.624564 2.145141 -3.426658 36 37 45
-0.793696 2.443445 -6.002537 94 111 130
-0.719145 2.554332 -0.981971 92 96 102
-0.689459 1.899097 -3.526871 87 103 122
-1.171590 2.200113 -6.170539 117 132 155
0.561958 2.625564 -1.220276 17 24 36
-0.480336 1.601408 -3.702297 102 114 128
0.058637 2.061146 -6.297055 94 110 131
1.200256 2.545303 -1.352540 0 0 14
-1.280599 1.858194 -6.395686 137 154 176
2.818924 3.523533 -1.443408 212 216 226
-0.352328 1.584382 -3.800376 97 113 132
-1.519629 1.815184 -6.448689 111 128 151
0.749622 2.648172 -1.346290 177 184 202
-0.944281 1.648525 -6.568704 140 156 179
-0.776235 2.479165 -1.156023 90 99 106
0.023714 1.455988 -3.656852 88 101 123
-0.992761 1.626451 -6.570800 114 131 154
-0.581218 2.507363 -1.181012 96 101 112
-0.027379 1.517992 -3.783468 88 101 123
-0.993694 1.629717 -6.572337 114 131 154
2.832244 3.544897 -1.607255 212 217 227
0.748136 2.308589 -3.339059 74 87 102
-0.887415 1.586118 -6.613378 110 125 148
2.816019 3.520076 -1.612095 212 217 227
0.863520 2.429402 -3.283517 72 85 100
-0.998795 1.586948 -6.597062 136 153 176
-0.709378 2.498834 -1.198915 95 100 111
0.691793 2.214642 -3.426408 73 86 101
-0.901341 2.423234 -1.189353 90 100 107
0.026981 1.540751 -3.878983 93 109 134
-0.901383 1.584231 -6.616030 132 149 170
-0.901166 2.416134 -1.190264 90 100 107
1.061001 2.424165 -3.202742 72 83 95
-1.405130 1.544086 -6.653155 109 126 149
1.044733 2.612353 -1.512864 196 204 215
